ncols	161
nrows	39
xllcorner	472594.408273
yllcorner	4607509.90414
cellsize	10.0000000000
NODATA_value	-9999.0000000000
284.7701400000	284.4671300000	284.0481900000	283.7533300000	283.5314000000	282.8722500000	282.6110500000	282.0240200000	281.6231700000	281.8485400000	282.1841100000	282.2377600000	281.7815200000	281.1174000000	280.6244800000	280.5321000000	280.7431000000	281.0414700000	281.1886300000	280.7887600000	280.0476100000	279.3333400000	278.7466700000	278.3792100000	278.3114600000	278.2378800000	277.8366700000	277.2889700000	276.8483600000	276.7194200000	276.9534300000	277.2772500000	277.7441700000	278.3057300000	278.7817100000	279.2987100000	279.8751800000	280.3562000000	280.7599500000	281.2480200000	281.8573300000	282.0934400000	282.4444000000	282.7237900000	282.8789400000	283.0477300000	283.0629900000	283.0953400000	283.1034200000	283.2002900000	283.4801000000	283.8493700000	284.2929400000	284.7252200000	285.1588100000	285.6446800000	286.1139500000	286.4049700000	286.5887800000	286.8435100000	287.0019800000	287.0961000000	287.2134100000	287.2346200000	287.2654700000	287.3335300000	287.3844300000	287.4880400000	287.5136400000	287.5533800000	287.5326800000	287.4941400000	287.4013400000	287.3181200000	287.2721600000	287.2359900000	287.2151200000	287.0823100000	286.7705100000	286.6022300000	286.4863900000	286.3066100000	285.9924300000	285.2264100000	284.4032000000	283.8661200000	284.0256000000	284.5564300000	285.2516800000	285.8759800000	285.9197400000	285.4722300000	284.9947800000	284.6708700000	284.4970400000	284.4909100000	284.7448100000	285.1732500000	285.6379700000	286.1480400000	286.6336400000	286.7064800000	286.8316300000	286.9137600000	286.9707900000	286.9707900000	286.9860200000	287.0752900000	287.1781900000	287.2436500000	287.2676400000	287.2293400000	287.1855800000	287.1467900000	287.1104700000	287.1237500000	287.1034500000	287.1034500000	287.0388200000	286.9661300000	286.8347500000	286.6261300000	286.4541900000	286.2458500000	286.0122400000	285.7339200000	285.3989600000	284.9990500000	284.5339400000	284.1470000000	283.7279100000	283.2819800000	282.7921400000	282.4390900000	282.1586300000	281.9903900000	281.8348700000	281.8205600000	281.7549100000	281.6759900000	281.5820000000	281.3618500000	280.9604800000	280.3710600000	279.7204900000	279.7488700000	280.1118500000	280.3355400000	280.4815100000	280.6948900000	281.2087100000	281.8195800000	282.5997900000	283.4599600000	284.2528700000	284.7953800000	285.1433100000	285.3417700000	285.4539500000	285.5005500000	-9999.0000000000
284.6782500000	284.3676100000	283.8326100000	283.3259000000	282.9012500000	282.4999700000	282.0380200000	281.4262100000	281.0326500000	281.2345300000	282.1841100000	282.2377600000	281.7743800000	281.0837400000	280.3406700000	280.0184300000	280.1388500000	280.4317600000	280.7246700000	280.6702300000	280.0917100000	279.3408500000	278.7201800000	278.1987000000	277.8330700000	277.6040300000	277.3125300000	276.9330400000	276.6048900000	276.5981100000	276.9261800000	277.3430800000	277.9393900000	278.5436400000	279.1422700000	279.7573500000	280.4105800000	280.9081700000	281.3458900000	281.8844600000	282.4750100000	282.6491700000	283.0697600000	283.4278000000	283.6050400000	283.7334600000	283.6748700000	283.5852400000	283.4968900000	283.5248400000	283.6713000000	283.8691400000	284.1089800000	284.4785200000	284.9277000000	285.4355200000	285.9874000000	286.4135400000	286.7041300000	287.0019500000	287.1409900000	287.1959500000	287.2889100000	287.3020000000	287.3122300000	287.3556500000	287.4109500000	287.4991800000	287.5307000000	287.5651600000	287.5302400000	287.4737900000	287.3647200000	287.2963600000	287.2746600000	287.2527200000	287.2047400000	287.0285300000	286.6629600000	286.4296600000	286.1319300000	285.8841600000	285.6835900000	285.0539600000	284.2910800000	283.7260100000	283.7941300000	284.3018800000	284.9804700000	285.6875900000	285.8793600000	285.4911200000	284.9004200000	284.4494300000	284.2316300000	284.2973900000	284.6411700000	285.0570700000	285.5102500000	286.0151700000	286.5789500000	286.6185900000	286.7531700000	286.8263200000	286.8950500000	286.8950500000	286.9203500000	286.9898100000	287.0863000000	287.1841400000	287.2312600000	287.1929300000	287.1608600000	287.1311300000	287.1219500000	287.1562200000	287.1204800000	287.1192600000	287.0420200000	286.9599900000	286.8215600000	286.6236300000	286.4326800000	286.2414900000	286.0111400000	285.7360800000	285.3961500000	284.9565700000	284.4837300000	284.0616100000	283.6251500000	283.2013900000	282.8240400000	282.5084200000	282.2192100000	281.9459200000	281.6330900000	281.5350600000	281.4021000000	281.2736200000	281.1228300000	280.9536400000	280.6614100000	280.2358700000	279.6952800000	279.4680500000	279.8643800000	279.9770800000	280.1954300000	280.6052200000	281.1841100000	281.8171100000	282.6317400000	283.5297500000	284.2980300000	284.8390500000	285.1194500000	285.2934900000	285.3835100000	285.4391800000	-9999.0000000000
284.6006200000	284.2475300000	283.7495100000	283.1150200000	282.4563300000	281.7867700000	281.2785900000	280.8384100000	280.5875500000	281.2345300000	281.6295200000	281.8689000000	281.6409600000	280.9669800000	280.1815500000	279.6687900000	279.5924700000	279.7949500000	280.1580500000	280.3568700000	280.0305800000	279.3637400000	278.7731900000	278.1643100000	277.5078100000	277.0556000000	276.8378600000	276.6191700000	276.3239400000	276.5879500000	276.9819300000	277.5415300000	278.1343400000	278.8800000000	279.6116600000	280.3610200000	281.0445600000	281.5816000000	281.9506200000	282.5968000000	283.2258600000	283.3903800000	283.8639200000	284.2551000000	284.4554400000	284.5551800000	284.4150100000	284.2421000000	284.0267900000	283.9661900000	284.0737000000	284.2497900000	284.4665500000	284.7578700000	285.0377500000	285.3187300000	285.8432600000	286.3424100000	286.7167400000	287.0638700000	287.2216200000	287.2538800000	287.3418300000	287.3481800000	287.3703000000	287.3947800000	287.4319800000	287.5059200000	287.5286300000	287.5481300000	287.5070200000	287.4205300000	287.3455200000	287.2934300000	287.2907400000	287.2490500000	287.1614100000	286.9751600000	286.5934800000	286.3032200000	285.8005700000	285.4220300000	285.2219500000	284.7572000000	284.1209400000	283.5535000000	283.6169700000	284.0489200000	284.7072400000	285.4337800000	285.7907700000	285.4957000000	284.8548900000	284.3154000000	284.0283500000	284.1535300000	284.5257300000	284.9470200000	285.3259600000	285.7967500000	286.4200100000	286.5415300000	286.6772200000	286.7634900000	286.8335000000	286.8361800000	286.8604400000	286.9233400000	287.0117500000	287.1042500000	287.1620500000	287.1371200000	287.1042800000	287.1077600000	287.1334800000	287.1584500000	287.1204800000	287.1098600000	287.0361000000	286.9262100000	286.8020000000	286.6026900000	286.3941000000	286.2106300000	286.0026600000	285.7511900000	285.4404900000	285.0263100000	284.5920700000	284.1984900000	283.8006900000	283.3876600000	282.9959100000	282.6677600000	282.3829300000	282.1277500000	281.7452700000	281.4705800000	281.2145400000	280.9881300000	280.8029800000	280.6051000000	280.3659700000	280.0330800000	279.6872600000	279.2983700000	279.6272900000	279.7554000000	280.0943600000	280.5576800000	281.1198400000	281.7699000000	282.6318700000	283.5659800000	284.3135400000	284.8058200000	285.0766000000	285.2348000000	285.3234300000	285.3611500000	-9999.0000000000
284.5265800000	284.2674900000	283.9191900000	283.3541000000	282.6117600000	281.7814900000	281.1003400000	280.8384100000	280.5865500000	280.6710200000	280.9976800000	281.3055700000	281.3227200000	280.8554400000	280.1056500000	279.5016800000	279.1690100000	279.2574200000	279.5952100000	279.9321300000	279.9021000000	279.4167500000	278.7652600000	278.0825500000	277.4926500000	276.9519300000	276.4914200000	276.2941000000	276.1575300000	276.5726300000	277.0643600000	277.7430700000	278.3465300000	279.1952800000	280.0556300000	280.9122900000	281.6668400000	282.2513700000	282.6571400000	283.3493300000	283.9403100000	284.0819100000	284.5036600000	284.8464700000	285.0442200000	285.1919900000	285.0965300000	284.9068900000	284.6705000000	284.5452300000	284.5899700000	284.7191500000	284.9415000000	285.2038900000	285.4562700000	285.7064800000	285.9946900000	286.3366100000	286.7187200000	287.0830700000	287.2416400000	287.2747200000	287.3643500000	287.3849500000	287.4180000000	287.4311500000	287.4629500000	287.5029900000	287.5096700000	287.5191000000	287.4509900000	287.3802200000	287.3314500000	287.3027600000	287.2747800000	287.2082200000	287.1264000000	286.9652400000	286.5785200000	286.1913100000	285.5367100000	285.0445300000	284.7660800000	284.4101000000	283.8994800000	283.3931900000	283.4314300000	283.8266600000	284.4437000000	285.1819500000	285.5966800000	285.4046900000	284.7619900000	284.1490500000	283.8642600000	284.0068100000	284.4020100000	284.8399000000	285.2760900000	285.7367600000	286.3540300000	286.4760400000	286.6120000000	286.6618700000	286.7449000000	286.7744400000	286.7914100000	286.8733200000	286.9680200000	287.0133400000	287.1003100000	287.1034200000	287.0706800000	287.1206700000	287.1434000000	287.1600000000	287.1182600000	287.0992400000	287.0178800000	286.9233400000	286.7825900000	286.5723300000	286.3584000000	286.2048000000	285.9950300000	285.7514000000	285.4976200000	285.1066000000	284.6901600000	284.3006600000	283.9532500000	283.6479200000	283.2919000000	282.9856900000	282.7104800000	282.4264500000	282.0129100000	281.7099600000	281.4242200000	281.1149600000	280.7338000000	280.3891600000	280.1193200000	279.7997400000	279.5569800000	279.2370300000	279.4254800000	279.6664700000	279.9900800000	280.4381100000	281.0120500000	281.7211300000	282.6606400000	283.5758700000	284.2913200000	284.7529600000	285.0144300000	285.1741000000	285.2526200000	285.2825900000	-9999.0000000000
284.4093600000	284.1630200000	283.8956600000	283.4540700000	282.8241900000	282.0576200000	281.1003400000	280.5688500000	280.2233900000	280.1524700000	280.3570600000	280.6571400000	280.8565700000	280.6788600000	280.0458400000	279.3118900000	278.8309900000	278.7942200000	279.0749200000	279.4295300000	279.5940200000	279.2867400000	278.6578100000	277.9598700000	277.3204000000	276.8221400000	276.3621200000	276.1061700000	276.1310400000	276.6422400000	277.2257100000	277.9302700000	278.5590800000	279.4481800000	280.3478700000	281.2479900000	282.0521200000	282.6587500000	283.1572000000	283.7918400000	284.3209200000	284.3754600000	284.6735800000	284.9054000000	285.0369300000	285.2564400000	285.3590700000	285.3904400000	285.2684300000	285.1802700000	285.2017200000	285.3270900000	285.5021700000	285.6982700000	285.9000500000	286.0978400000	286.3411900000	286.5335400000	286.7836300000	287.1028100000	287.2682200000	287.3097200000	287.3962700000	287.3967000000	287.4113800000	287.4361600000	287.4680200000	287.5080600000	287.4972800000	287.4689000000	287.4239800000	287.3736300000	287.3394800000	287.2789000000	287.2273300000	287.1436200000	287.0773300000	286.9387200000	286.5873100000	286.1824600000	285.4704900000	284.8488800000	284.4253500000	284.0929000000	283.6918000000	283.2147200000	283.2492100000	283.6442000000	284.2318100000	284.9324600000	285.3735400000	285.1767000000	284.5335700000	283.9425400000	283.6976600000	283.9716800000	284.4310900000	284.9535800000	285.4412800000	285.9029500000	286.3634300000	286.4240700000	286.4785200000	286.5152000000	286.6243900000	286.6964700000	286.7341300000	286.8117400000	286.9165000000	286.9575500000	287.0073200000	287.0470000000	287.0923200000	287.1198700000	287.1346100000	287.1522500000	287.0909700000	287.0750100000	287.0111700000	286.9032900000	286.7642800000	286.5656100000	286.3588900000	286.1930200000	285.9967000000	285.7556800000	285.5038800000	285.1093100000	284.6273200000	284.2175600000	283.8873900000	283.7467300000	283.5900300000	283.3932500000	283.1713600000	282.8961500000	282.4623100000	282.1013800000	281.7416700000	281.4137300000	281.0465100000	280.6273800000	280.1981500000	279.7216500000	279.3779000000	279.1178600000	279.1958000000	279.6312600000	279.8802200000	280.3067900000	280.9511100000	281.6946100000	282.6378200000	283.5626200000	284.2383700000	284.6740400000	284.9127800000	285.0894500000	285.1962600000	285.2052900000	-9999.0000000000
284.2619000000	283.9484300000	283.6733100000	283.2682200000	282.7961400000	282.0576200000	281.2807600000	280.5823700000	280.0692700000	279.7931500000	279.7818600000	280.0157800000	280.2824100000	280.3139300000	279.8325800000	279.1407200000	278.5124200000	278.3501900000	278.5127900000	278.8183300000	279.0244400000	278.8924900000	278.4455000000	277.7977300000	277.1290900000	276.5273400000	276.0668300000	275.8896200000	276.1850000000	276.7658700000	277.5036300000	278.1252100000	278.8166800000	279.6981200000	280.5277400000	281.3848900000	282.0902400000	282.6431600000	283.0950000000	283.6551800000	284.0707100000	283.9910000000	284.2200300000	284.4538300000	284.6162100000	284.8913300000	285.1943400000	285.5115700000	285.6548200000	285.6595800000	285.7616300000	285.8906600000	286.0217900000	286.1765400000	286.3307800000	286.4468700000	286.6337000000	286.7509500000	286.9083600000	287.1909800000	287.3165600000	287.3476300000	287.4158300000	287.4159500000	287.4296600000	287.4354200000	287.4667400000	287.5072900000	287.4797700000	287.4458000000	287.3947800000	287.3682300000	287.2981000000	287.2202100000	287.1559100000	287.0844700000	287.0230400000	286.9105500000	286.6181900000	286.2865300000	285.6960400000	284.9778400000	284.3658100000	283.8811300000	283.5123900000	283.0984800000	283.0694000000	283.4611500000	284.0897200000	284.7857700000	285.1419400000	284.8645600000	284.2047400000	283.6833200000	283.5634800000	284.0027500000	284.5800800000	285.1591200000	285.6706800000	286.0514800000	286.3124400000	286.2865000000	286.2991900000	286.3252000000	286.4722300000	286.5773000000	286.6591800000	286.7526900000	286.8728900000	286.9320700000	286.9489100000	287.0152000000	287.0526100000	287.0745200000	287.0976300000	287.1144400000	287.0551500000	287.0449200000	286.9566700000	286.8474400000	286.7357200000	286.5262500000	286.3387100000	286.1919600000	285.9967000000	285.7881500000	285.5204200000	285.0925000000	284.5453200000	284.0397600000	283.6378500000	283.4791900000	283.4686300000	283.5075100000	283.4787300000	283.3524800000	282.9757100000	282.5962200000	282.2162800000	281.8075600000	281.3820200000	280.9123200000	280.4337800000	279.9550500000	279.5832800000	279.1621700000	278.9734500000	279.4892000000	279.8243700000	280.3617200000	281.0074800000	281.7202100000	282.6083700000	283.5057400000	284.1590900000	284.5578300000	284.7901900000	284.9749100000	285.1310400000	285.2023000000	-9999.0000000000
284.0745800000	283.6964400000	283.2970000000	283.2682200000	282.7961400000	282.1555800000	281.4313700000	280.7142600000	280.0638400000	279.5288400000	279.3650800000	279.4399400000	279.6660800000	279.8079800000	279.5447700000	278.9249600000	278.2732800000	277.9664600000	278.0816700000	278.2347700000	278.3988600000	278.3356000000	278.0164200000	277.4916400000	276.8388100000	276.2407800000	275.8367900000	275.7709700000	276.2424000000	276.9320100000	277.7312600000	278.3602000000	279.0684800000	279.8030400000	280.4556000000	281.1521300000	281.6524400000	282.0665600000	282.4114100000	282.9203500000	283.3736600000	283.4137600000	283.6778000000	283.9631000000	284.1975400000	284.5441300000	284.9483900000	285.4034100000	285.7402300000	285.9233100000	286.1017500000	286.2745400000	286.3881500000	286.5176700000	286.6330000000	286.7376400000	286.8804300000	286.9483300000	287.0477300000	287.2458500000	287.3556800000	287.3556200000	287.4350600000	287.4274600000	287.4161700000	287.4158600000	287.4332000000	287.4873000000	287.4601700000	287.4259300000	287.3747600000	287.3329500000	287.2393800000	287.1612200000	287.0967100000	287.0251800000	286.9448900000	286.8765900000	286.6347700000	286.3838800000	285.9180900000	285.1877100000	284.5188000000	283.9304200000	283.4356700000	283.0548400000	282.9181200000	283.3245500000	283.9694200000	284.6755700000	284.9312700000	284.5534100000	283.9141500000	283.4619100000	283.4667400000	284.0358300000	284.6952800000	285.3543100000	285.8512600000	286.1624800000	286.3692600000	286.0674100000	286.0455000000	286.1223800000	286.3197600000	286.4581000000	286.5656400000	286.6841400000	286.8139000000	286.8560200000	286.8975800000	286.9754600000	286.9937700000	287.0156200000	287.0274400000	287.0532500000	287.0121200000	286.9860800000	286.8982200000	286.7872900000	286.6653100000	286.4808300000	286.3182700000	286.1634500000	285.9964000000	285.7881200000	285.5397000000	285.1032100000	284.5017100000	283.8981900000	283.3629200000	283.0521500000	282.9624900000	283.0693400000	283.2462500000	283.3715200000	283.1788900000	282.9522700000	282.6830400000	282.3100000000	281.7926900000	281.2352000000	280.6545400000	280.0459300000	279.5823100000	279.1128500000	278.8913600000	279.3890400000	279.7741400000	280.3230900000	281.0060700000	281.8052400000	282.7227200000	283.4913300000	284.0487400000	284.3677100000	284.5811200000	284.8448800000	285.0536800000	285.1439200000	-9999.0000000000
283.9610000000	283.4889500000	283.2970000000	282.8559900000	282.4311200000	281.9416200000	281.3868100000	280.7569900000	280.0999500000	279.3936200000	279.0014000000	278.9556900000	279.1183800000	279.3206800000	279.2257100000	278.6728500000	278.0305800000	277.6155400000	277.6317400000	277.7358700000	277.7964800000	277.7096600000	277.4643900000	277.0314900000	276.4857500000	275.9507800000	275.6202400000	275.7748400000	276.3590100000	277.0211500000	277.8486300000	278.4604800000	278.9957300000	279.4856300000	279.9997900000	280.5419300000	280.9660600000	281.2782000000	281.5898700000	282.1183800000	282.7233900000	282.9356100000	283.2924500000	283.6197500000	283.9087500000	284.2923600000	284.7794200000	285.2985200000	285.6790500000	285.9220600000	286.1916200000	286.4080800000	286.5812700000	286.6937000000	286.8090200000	286.9136700000	287.0440400000	287.0732100000	287.1293600000	287.3199500000	287.3944400000	287.3909900000	287.4350600000	287.4274600000	287.4161700000	287.3963600000	287.3883100000	287.4402200000	287.4385100000	287.3868100000	287.3261100000	287.2742600000	287.1791100000	287.0829800000	287.0051900000	286.9273700000	286.8719800000	286.8179000000	286.6270800000	286.4556000000	286.0913400000	285.4177900000	284.6717800000	284.0072300000	283.4107100000	282.9029500000	282.7861300000	283.2071800000	283.8520500000	284.4967300000	284.7184100000	284.3042000000	283.6605800000	283.2534200000	283.3597700000	284.0304000000	284.7824700000	285.4614000000	285.8846100000	286.0580400000	286.0758400000	285.7880600000	285.7920800000	285.9267900000	286.1480100000	286.3371600000	286.4874000000	286.6059000000	286.7356600000	286.7954100000	286.8193400000	286.8972200000	286.9155300000	286.9430800000	286.9572400000	286.9750400000	286.9498600000	286.9172400000	286.8547700000	286.7301000000	286.6261900000	286.4417100000	286.2791400000	286.1438900000	285.9768700000	285.7854300000	285.5428500000	285.1227700000	284.5064700000	283.7972100000	283.1582300000	282.7079500000	282.4796400000	282.4876700000	282.6309200000	282.8638000000	282.8457900000	282.8053600000	282.7392300000	282.5875500000	282.1839000000	281.5773000000	280.8589200000	280.1176100000	279.5220300000	278.9830300000	278.8522600000	279.3499100000	279.7350200000	280.3037400000	281.0120800000	281.8011200000	282.6502100000	283.3113100000	283.7554000000	284.0236200000	284.2950400000	284.6680000000	284.9498000000	285.1040300000	-9999.0000000000
283.9610000000	283.4889500000	282.9557200000	282.4049100000	281.9299300000	281.4724700000	281.0953100000	280.6567100000	280.0812400000	279.3424100000	278.7952600000	278.5585600000	278.6163300000	278.7634000000	278.7706000000	278.3861400000	277.8275100000	277.3480800000	277.2011400000	277.2252500000	277.1668700000	277.0643000000	276.8270900000	276.4930700000	276.0784600000	275.6625400000	275.4680200000	275.8218400000	276.3612700000	276.9417700000	277.6798100000	278.2838100000	278.6254300000	278.9806800000	279.4228800000	279.8979500000	280.3679500000	280.7160900000	281.0209700000	281.6088300000	282.3627900000	282.6352500000	283.0013400000	283.3976100000	283.8237900000	284.3295600000	284.7907100000	285.1969600000	285.4880700000	285.7322700000	286.0483400000	286.3568400000	286.5680500000	286.7308000000	286.8825400000	286.9925500000	287.1290000000	287.1712000000	287.1915300000	287.3551900000	287.4141200000	287.4106400000	287.4524800000	287.4274600000	287.4025600000	287.3771900000	287.3880000000	287.4399100000	287.4037200000	287.3476900000	287.2869300000	287.2350200000	287.1188000000	286.9973400000	286.9206200000	286.8490000000	286.7990700000	286.7592200000	286.5856300000	286.4463500000	286.1764500000	285.5849300000	284.8235800000	284.0715900000	283.3984700000	282.8075600000	282.6346700000	283.0703700000	283.6988200000	284.3178700000	284.5141000000	284.1031800000	283.4833100000	283.0837400000	283.2424600000	283.8775900000	284.6275900000	285.3168600000	285.6687600000	285.6963200000	285.6050400000	285.5310400000	285.5966800000	285.7700500000	286.0033000000	286.2532700000	286.4285900000	286.5568800000	286.6807300000	286.7367200000	286.7605300000	286.8384100000	286.8374300000	286.8786600000	286.8790900000	286.8967900000	286.8753100000	286.8491500000	286.7767600000	286.6714500000	286.5749200000	286.4025900000	286.2211900000	286.1048900000	285.9488200000	285.7492100000	285.5234400000	285.1212800000	284.4965500000	283.7350800000	283.0266400000	282.4996900000	282.1512500000	282.0325000000	282.0494700000	282.2059600000	282.1910100000	282.2359300000	282.3005400000	282.4231600000	282.3220800000	281.8055100000	280.9856300000	280.1007700000	279.4135400000	278.7984600000	278.8840600000	279.3141500000	279.6903100000	280.2449300000	280.9030200000	281.6180700000	282.3307500000	282.9098500000	283.2968800000	283.6013800000	284.0107700000	284.4953000000	284.8398700000	285.0065900000	-9999.0000000000
283.9348400000	283.5566700000	282.9465900000	282.2634000000	281.5827300000	280.9649700000	280.6338800000	280.3379200000	279.9482400000	279.2331200000	278.6235400000	278.2683100000	278.1484700000	278.2148400000	278.2837200000	278.1075700000	277.6619300000	277.1425800000	276.7329400000	276.7754200000	276.6396200000	276.4626800000	276.2614700000	275.9830000000	275.6708100000	275.3579700000	275.5178200000	275.8514100000	276.2115500000	276.6956800000	277.3133200000	277.9106100000	278.2439600000	278.5392200000	278.9401200000	279.4399400000	279.8964800000	280.2945300000	280.6420600000	281.3291300000	282.1793500000	282.4527900000	282.9149800000	283.4101600000	283.8403300000	284.2878100000	284.5938400000	284.8606300000	285.1038800000	285.3791800000	285.7806400000	286.1904600000	286.4989000000	286.7290000000	286.9036300000	287.0328100000	287.1633900000	287.1930200000	287.2123400000	287.3752100000	287.4240400000	287.3959000000	287.4509900000	287.4008500000	287.3775000000	287.3761900000	287.3880000000	287.4286500000	287.3837300000	287.3085900000	287.2478000000	287.1810000000	287.0616100000	286.9496800000	286.8611800000	286.7712400000	286.7020000000	286.6625700000	286.4894400000	286.3542500000	286.1205700000	285.6097100000	284.9195600000	284.0842900000	283.3601100000	282.6944000000	282.4545600000	282.8869000000	283.5073500000	284.1254900000	284.3540300000	283.9644200000	283.3255300000	282.9142800000	283.0510600000	283.6112100000	284.2725200000	284.9028000000	285.2099900000	285.2438400000	285.3211700000	285.3662700000	285.4586200000	285.6764800000	285.9347200000	286.2111200000	286.3889200000	286.5079000000	286.6221600000	286.6780400000	286.7018400000	286.7797200000	286.7782000000	286.8008100000	286.8008100000	286.8017000000	286.8006300000	286.7901900000	286.7323000000	286.6127600000	286.5164500000	286.3572400000	286.1814900000	286.0658000000	285.9100600000	285.7101400000	285.4910000000	285.1299400000	284.5726900000	283.8672500000	283.1680600000	282.5525800000	281.9807700000	281.7204600000	281.6288500000	281.6192600000	281.5072000000	281.5546000000	281.6647900000	281.9305700000	282.0910000000	281.7410000000	280.8971900000	279.9567900000	279.2470100000	278.6023200000	279.0193200000	279.3131100000	279.6349500000	280.1287200000	280.6997400000	281.3009000000	281.9281300000	282.4423200000	282.8371900000	283.2127700000	283.7455100000	284.3490900000	284.7678800000	284.9655200000	-9999.0000000000
283.9059100000	283.5791600000	283.0898100000	282.4221800000	281.6515200000	280.8213800000	280.2676700000	279.8674300000	279.5374100000	279.0162700000	278.4432400000	277.9145200000	277.7267500000	277.7408100000	277.7947700000	277.7550400000	277.4308500000	276.8963600000	276.3190600000	276.3312400000	276.1822500000	276.0031100000	275.8201600000	275.5951500000	275.3080700000	275.2471900000	275.5877700000	275.8324900000	276.0751300000	276.4187300000	276.8909900000	277.4319500000	277.8410600000	278.1640600000	278.5913700000	279.0629300000	279.5013400000	279.9755200000	280.3808600000	281.1576200000	282.0094900000	282.2738300000	282.7494200000	283.2564100000	283.5867300000	283.9105500000	284.1069600000	284.3420400000	284.6176100000	284.9841900000	285.4623100000	285.9803500000	286.3957500000	286.7181700000	286.9046300000	287.0352200000	287.1895400000	287.2197300000	287.2319000000	287.3908400000	287.4245300000	287.3801000000	287.4137900000	287.3697800000	287.3446400000	287.3575700000	287.3509200000	287.3799400000	287.3270600000	287.2508900000	287.1901200000	287.1225300000	287.0200500000	286.8916000000	286.7899200000	286.6568300000	286.5620100000	286.5302700000	286.3731100000	286.2133500000	285.9246800000	285.4022800000	284.7793300000	283.9921000000	283.2653500000	282.5780900000	282.3060600000	282.7002300000	283.3119200000	283.9327100000	284.1870400000	283.8089300000	283.1875300000	282.7756700000	282.8760100000	283.3254700000	283.8844900000	284.4153100000	284.6697700000	284.7836300000	285.1045200000	285.2494200000	285.4524200000	285.7447800000	286.0199600000	286.2158200000	286.3312400000	286.4497400000	286.5634800000	286.6193500000	286.6358000000	286.7024800000	286.7009600000	286.7279700000	286.7520400000	286.7597000000	286.7226000000	286.7129800000	286.6558500000	286.5526700000	286.4461700000	286.2992200000	286.1238400000	286.0266400000	285.8499500000	285.6339400000	285.4151000000	285.0817300000	284.6283900000	284.0433300000	283.3798500000	282.7236300000	282.0679300000	281.5523400000	281.3089900000	281.1957400000	280.9473000000	280.9465600000	281.0380600000	281.3313300000	281.5896600000	281.3570900000	280.5569500000	279.6461800000	278.9303300000	278.6013200000	279.0899000000	279.3098800000	279.6374200000	280.0104700000	280.4622800000	280.9611800000	281.4877900000	281.9951500000	282.4515400000	282.9659700000	283.5683600000	284.2335200000	284.7028200000	284.8895300000	-9999.0000000000
283.6759900000	283.3952600000	283.0408000000	282.5199600000	281.8001700000	280.9608200000	280.2173500000	279.4942300000	279.0006100000	278.5943900000	278.1645200000	277.6873500000	277.3705400000	277.2532000000	277.2910800000	277.2838100000	277.0626500000	276.6084000000	276.0162400000	275.8547400000	275.7900100000	275.6417500000	275.4911500000	275.2408800000	275.0984800000	275.3436900000	275.6054400000	275.8260500000	276.0832200000	276.4343300000	276.8644100000	277.2671500000	277.6212800000	278.0086700000	278.4156800000	278.8348700000	279.2352900000	279.7165200000	280.1793500000	280.9461100000	281.8077400000	282.0023500000	282.4543200000	282.8840000000	283.1460000000	283.3922400000	283.5807500000	283.8370400000	284.2471000000	284.8033100000	285.4323400000	286.0008500000	286.4558100000	286.7535700000	286.9408600000	287.0533400000	287.2095900000	287.2398400000	287.2349200000	287.3738700000	287.4064000000	287.3608100000	287.3946800000	287.3601700000	287.3113700000	287.3018200000	287.2883300000	287.3144800000	287.2683700000	287.1706800000	287.0952100000	287.0276200000	286.9264800000	286.7966900000	286.6694900000	286.5037500000	286.3472900000	286.3133500000	286.1966600000	286.0457800000	285.6586600000	285.0410200000	284.4281900000	283.7455400000	283.0888400000	282.4064600000	282.1503300000	282.5216400000	283.1163000000	283.7554000000	284.0116600000	283.6477400000	283.0157500000	282.6508800000	282.7381900000	283.1088000000	283.5855400000	284.0338700000	284.3119800000	284.4521500000	285.0133700000	285.2255600000	285.5254800000	285.8591600000	286.1244800000	286.2411500000	286.3194300000	286.4091500000	286.5228900000	286.5589000000	286.5656100000	286.6297600000	286.6406900000	286.6811200000	286.6835600000	286.6843600000	286.6624800000	286.6528300000	286.5816000000	286.4785500000	286.3979200000	286.2405400000	286.0827000000	285.9694200000	285.7910800000	285.5425400000	285.2977300000	284.9511400000	284.5467200000	284.1157800000	283.5661900000	282.9776300000	282.2946200000	281.6320500000	281.1050400000	280.8476900000	280.5340900000	280.4513500000	280.4942000000	280.6882900000	280.9356700000	280.7229600000	280.0168500000	279.2280900000	278.5824900000	278.6417800000	279.0872500000	279.4270600000	279.8963000000	280.3822600000	280.8263200000	281.2143200000	281.6251200000	282.1034200000	282.6405600000	283.1693100000	283.7101400000	284.2550000000	284.6243300000	284.8110700000	-9999.0000000000
283.3008400000	282.8986500000	282.6642800000	282.3151900000	281.7848200000	281.0755300000	280.3140900000	279.5324700000	278.7260400000	278.1121500000	277.7886000000	277.3774100000	276.9859900000	276.7774400000	276.7925400000	276.7553400000	276.5944500000	276.2717900000	275.7526200000	275.4200400000	275.4192800000	275.3346300000	275.1486500000	274.9364900000	275.1320500000	275.4194000000	275.6465100000	275.8751500000	276.1979100000	276.6197200000	277.0847800000	277.5353400000	277.8174100000	278.0742200000	278.4007300000	278.8046900000	279.2150600000	279.6159400000	280.0603300000	280.7411200000	281.6332100000	281.8141200000	282.1391000000	282.4855300000	282.7148700000	282.9496200000	283.2370300000	283.7468900000	284.3594100000	284.9944500000	285.6292400000	286.1718800000	286.5504500000	286.8065500000	286.9709200000	287.0762300000	287.2151800000	287.2399600000	287.2299200000	287.3660900000	287.3886100000	287.3504000000	287.3701800000	287.3245500000	287.2553700000	287.2257100000	287.2116100000	287.2270800000	287.1588100000	287.0762000000	286.9974100000	286.9207200000	286.8195500000	286.6830700000	286.5184000000	286.2865000000	286.0660400000	286.0005800000	285.9491900000	285.8535500000	285.3779300000	284.6263400000	284.0104400000	283.4236800000	282.8315100000	282.2124900000	282.0225200000	282.3653000000	282.9605400000	283.5715600000	283.7365400000	283.3542800000	282.7780200000	282.5379000000	282.6304600000	282.8947100000	283.3277600000	283.7088000000	284.0021400000	284.3600500000	285.0530700000	285.3094800000	285.6687000000	285.9721400000	286.1675100000	286.2398100000	286.2758500000	286.3550100000	286.4545900000	286.4849900000	286.4907800000	286.5670200000	286.5846300000	286.6077900000	286.6307400000	286.6223800000	286.5971100000	286.5815400000	286.5180400000	286.4142500000	286.3363600000	286.1897300000	286.0223700000	285.9067400000	285.7183800000	285.4554100000	285.1811500000	284.7641600000	284.3219600000	283.9419600000	283.5372600000	283.1396500000	282.5374800000	281.8017600000	281.1525300000	280.6312300000	280.2070600000	280.1072700000	280.0621300000	280.1346400000	280.2371200000	280.0003400000	279.4313000000	278.8400900000	278.3761300000	278.7225300000	279.1152300000	279.6369000000	280.2333100000	280.8058500000	281.3097500000	281.7328500000	282.1622600000	282.5473600000	282.9812000000	283.4134200000	283.8400300000	284.2251900000	284.5056200000	284.7337300000	-9999.0000000000
282.8664600000	282.2863500000	282.0165100000	281.7566800000	281.4134200000	280.9713100000	280.3814700000	279.6455700000	278.7630900000	277.9360400000	277.3855300000	277.0063500000	276.5936900000	276.2985200000	276.3024900000	276.2246400000	276.0761700000	275.8368200000	275.4634100000	275.1550300000	275.0652200000	274.9884600000	274.7964800000	274.8557700000	275.1979100000	275.5298200000	275.7512200000	275.9787600000	276.3496400000	276.8111600000	277.3185100000	277.7835700000	278.0674400000	278.3937700000	278.6753200000	278.9907500000	279.3832700000	279.8068800000	280.1713600000	280.7036100000	281.5515700000	281.7680100000	281.9972200000	282.2003500000	282.4138200000	282.7128900000	283.1475200000	283.7696200000	284.4455300000	285.0906400000	285.7241800000	286.2771300000	286.6114800000	286.8328900000	286.9868200000	287.0962200000	287.2219200000	287.2225000000	287.2120400000	287.3279400000	287.3365500000	287.2975500000	287.3136600000	287.2510100000	287.1794700000	287.1303400000	287.1161500000	287.1302500000	287.0589600000	286.9786400000	286.8996000000	286.8217200000	286.7191500000	286.5594200000	286.3210400000	285.9858100000	285.6996800000	285.6274100000	285.6663200000	285.6551500000	285.1388200000	284.3130500000	283.6509100000	283.0977800000	282.5354900000	282.0127900000	281.9086000000	282.2608000000	282.8417700000	283.3426500000	283.3619100000	282.9768100000	282.4949300000	282.4040500000	282.6190500000	282.9689900000	283.3664600000	283.7668500000	284.1147200000	284.5117500000	285.1499300000	285.4537400000	285.7889100000	286.0091900000	286.1612900000	286.2064500000	286.2220800000	286.3052400000	286.3944100000	286.4243200000	286.4301100000	286.5080000000	286.5092200000	286.5470000000	286.5628400000	286.5615200000	286.5375400000	286.5212100000	286.4588900000	286.3563500000	286.3008400000	286.1318100000	285.9460100000	285.8256500000	285.6331500000	285.3910500000	285.0755900000	284.5969500000	284.0690600000	283.6444100000	283.2959300000	282.9784200000	282.5256300000	281.8745400000	281.1848800000	280.6070900000	279.9949000000	279.7752100000	279.6811500000	279.6541400000	279.6483500000	279.3728300000	278.9545300000	278.4613300000	278.3425600000	278.7858900000	279.2516500000	279.9154700000	280.6038800000	281.2360200000	281.8042900000	282.2245200000	282.5975600000	282.8795800000	283.1784100000	283.4362200000	283.7123100000	284.0177900000	284.3144500000	284.6204800000	-9999.0000000000
282.5363500000	281.7338000000	281.2996800000	280.9907800000	280.7500300000	280.4899900000	280.1746500000	279.6592100000	278.8241000000	277.9620100000	277.2573900000	276.6024200000	276.3066700000	275.9346000000	275.7820100000	275.7130100000	275.5585900000	275.3556500000	275.1369000000	274.9426600000	274.7535400000	274.6363800000	274.6280200000	274.9397000000	275.3885800000	275.7886700000	276.1056500000	276.3179000000	276.5421100000	277.0583200000	277.5813300000	277.9896200000	278.3554700000	278.8187000000	279.1650100000	279.4563600000	279.8056000000	280.1030300000	280.4096400000	280.8974300000	281.5846300000	281.7857700000	282.0191000000	282.2368800000	282.4576400000	282.7481700000	283.1446800000	283.7466400000	284.4226400000	285.0642100000	285.6848800000	286.2401400000	286.5880100000	286.8263900000	286.9766800000	287.0818800000	287.1946700000	287.1926000000	287.1603400000	287.2848200000	287.2867100000	287.2421300000	287.2361500000	287.1559800000	287.0726900000	287.0325000000	287.0015600000	287.0056800000	286.9574900000	286.8640400000	286.7931500000	286.7239100000	286.6029400000	286.4050600000	286.1015900000	285.6583900000	285.3226600000	285.2473800000	285.3650500000	285.4534900000	284.9726900000	284.0812100000	283.3483600000	282.7770100000	282.2185700000	281.7958100000	281.8003800000	282.1798100000	282.7015700000	283.0357700000	282.8819300000	282.5431800000	282.2557700000	282.3177800000	282.6846900000	283.1314700000	283.5943600000	284.0509600000	284.4211700000	284.8335600000	285.3952600000	285.6284500000	285.8718000000	286.0193200000	286.1223100000	286.1507600000	286.1639400000	286.2563800000	286.3525100000	286.3656300000	286.3714600000	286.4493100000	286.4644500000	286.4883400000	286.4926500000	286.4857200000	286.4788500000	286.4625200000	286.4002100000	286.2952900000	286.2124000000	286.0507800000	285.8677700000	285.7466700000	285.5537100000	285.3006900000	285.0326800000	284.5814800000	284.0498000000	283.5277700000	283.0547800000	282.6482200000	282.2159100000	281.6724500000	281.0908200000	280.5116600000	279.8760100000	279.5425100000	279.3514700000	279.2824400000	279.1698900000	278.8872700000	278.5806600000	278.0499000000	278.4180900000	278.8707600000	279.4802900000	280.2357200000	280.9878500000	281.6491700000	282.1508200000	282.4200400000	282.5872800000	282.7223200000	282.9095500000	283.1027800000	283.3551000000	283.6989700000	284.0857200000	284.5019200000	-9999.0000000000
282.3239100000	281.3103000000	280.7044100000	280.2281200000	279.9368300000	279.7648900000	279.6594500000	279.3689300000	278.7545200000	278.0028400000	277.2787800000	276.4917300000	275.9566700000	275.6322600000	275.3411600000	275.2734700000	275.1468500000	274.9949300000	274.8533900000	274.6519200000	274.4876100000	274.4997300000	274.7149000000	275.3008100000	275.7373400000	276.1812400000	276.5653400000	276.8384100000	276.9847400000	277.3038300000	277.7957200000	278.2003200000	278.6715100000	279.3125900000	279.7619900000	280.0902100000	280.3316300000	280.5406500000	280.7804300000	281.2363600000	281.7817400000	281.9722300000	282.2602800000	282.5127600000	282.7109400000	282.9547400000	283.2483200000	283.6533500000	284.2384300000	284.8646200000	285.5040900000	286.1076700000	286.5391500000	286.8245500000	286.9625500000	287.0462300000	287.1677200000	287.1547200000	287.1182900000	287.2028500000	287.2130100000	287.1381500000	287.1395000000	287.0352500000	286.9399400000	286.9019800000	286.8678600000	286.8797900000	286.8426500000	286.7497900000	286.6937000000	286.6261000000	286.4826400000	286.2356900000	285.8573300000	285.3274500000	284.9248700000	284.8439600000	285.0166300000	285.2240900000	284.8479600000	283.9508100000	283.1182300000	282.5061000000	281.9586200000	281.5947000000	281.6887500000	282.1073600000	282.5130900000	282.6539300000	282.3663900000	282.1423600000	281.9823300000	282.3432600000	282.8100300000	283.3359400000	283.8922700000	284.4224500000	284.8050800000	285.1785000000	285.6228900000	285.7323900000	285.8673700000	285.9499800000	286.0234400000	286.0578900000	286.0889000000	286.1829500000	286.2806700000	286.2890000000	286.2735600000	286.3642900000	286.3926100000	286.4085700000	286.4090000000	286.4075000000	286.4038400000	286.3874800000	286.3251600000	286.2046800000	286.1309500000	285.9605100000	285.7731900000	285.6357400000	285.4427500000	285.2152100000	284.9940500000	284.6545100000	284.1758700000	283.6584200000	283.0852700000	282.5538900000	281.9996600000	281.4277000000	280.9011200000	280.3711500000	279.7977600000	279.4600800000	279.1012000000	278.8812900000	278.7777400000	278.5578000000	278.2625400000	277.9398200000	278.4798900000	278.9656400000	279.6891200000	280.5017400000	281.2636700000	281.8290700000	282.0565800000	282.0510300000	282.0866400000	282.1932100000	282.3710000000	282.6171000000	282.9049100000	283.3492700000	283.8697500000	284.3675500000	-9999.0000000000
282.2175300000	281.1279600000	280.3569000000	279.6770900000	279.2399900000	279.0256300000	278.9013100000	278.7445400000	278.4080200000	277.9187900000	277.2706600000	276.4660600000	275.7854900000	275.2914700000	274.9915200000	274.9111000000	274.8452500000	274.7188700000	274.5001500000	274.3751500000	274.3215900000	274.5737900000	275.1689500000	275.8306000000	276.2722200000	276.8009300000	277.2042800000	277.4926100000	277.6019300000	277.6805100000	278.0020400000	278.4011200000	278.9303900000	279.6604000000	280.2688300000	280.7073700000	280.9528800000	281.1680600000	281.3796100000	281.8050500000	282.2255900000	282.3288000000	282.6355000000	282.9283400000	283.1180100000	283.3474400000	283.6053800000	283.9577600000	284.3830000000	284.8901400000	285.4808000000	286.0670800000	286.5275900000	286.8086200000	286.9440300000	287.0071700000	287.1260400000	287.0997000000	287.0777600000	287.1316800000	287.1268600000	287.0404700000	287.0094900000	286.8941000000	286.7871100000	286.7491500000	286.7309300000	286.7544600000	286.7252800000	286.6460000000	286.5799900000	286.5123900000	286.3633700000	286.0560900000	285.5501700000	284.9482400000	284.5360100000	284.4473900000	284.6573200000	284.9256900000	284.7024800000	283.8661200000	282.9783900000	282.2925700000	281.7581500000	281.3540000000	281.6041600000	281.9954800000	282.2682200000	282.2416700000	281.9386600000	281.7826800000	281.9787300000	282.4527000000	282.9985400000	283.6095900000	284.2749900000	284.8355700000	285.1734900000	285.4361600000	285.7259500000	285.6964700000	285.7517100000	285.7860400000	285.8729900000	285.9423800000	285.9788500000	286.0809000000	286.1865200000	286.2088000000	286.1743200000	286.2679100000	286.2668500000	286.3020600000	286.3226900000	286.3151600000	286.3096600000	286.3009900000	286.2469200000	286.1059600000	286.0208700000	285.8479900000	285.6594800000	285.5141300000	285.3004800000	285.0860600000	284.8962700000	284.6359900000	284.2514000000	283.8364600000	283.3028900000	282.7581500000	282.1561300000	281.5097000000	280.9598400000	280.4552600000	279.9048800000	279.5014300000	279.0847800000	278.7038000000	278.4418900000	278.2766100000	278.0567300000	277.8881500000	278.5056500000	279.0356400000	279.7905000000	280.5930500000	281.2137500000	281.5347300000	281.5537700000	281.4381700000	281.4958800000	281.6478000000	281.8735000000	282.2296800000	282.7322100000	283.2959300000	283.8509800000	284.3735700000	-9999.0000000000
282.1021700000	281.0502300000	280.2064800000	279.3898600000	278.7526600000	278.3359100000	278.1102900000	277.9509000000	277.7705400000	277.5130600000	277.0030800000	276.3164700000	275.6641800000	275.1079100000	274.7644300000	274.5754100000	274.5298200000	274.3837300000	274.2369400000	274.1998300000	274.4488800000	274.9436300000	275.6042500000	276.3023700000	276.9251100000	277.5477600000	277.9896500000	278.2053500000	278.2026400000	278.1747400000	278.3161300000	278.6011400000	279.1074800000	279.8019700000	280.4862700000	281.0765400000	281.5240200000	281.8842200000	282.1329300000	282.5023800000	282.8343500000	282.8477500000	283.1718100000	283.4928300000	283.6616500000	283.9007000000	284.1346700000	284.4742400000	284.8201000000	285.2217700000	285.7384900000	286.2316300000	286.5965600000	286.8068500000	286.9132700000	286.9680800000	287.0856300000	287.0469400000	287.0087000000	287.0712900000	287.0542300000	286.9464700000	286.8831800000	286.7059000000	286.5687000000	286.5462000000	286.5567300000	286.6228600000	286.6079400000	286.5319500000	286.4701500000	286.3983800000	286.2456700000	285.9076800000	285.3124700000	284.6659200000	284.2373400000	284.0666800000	284.2572000000	284.5688500000	284.5199300000	283.7805200000	282.8891600000	282.1408400000	281.5792800000	281.1623800000	281.4794900000	281.8364000000	281.9814800000	281.8563500000	281.5805700000	281.6474000000	282.0853000000	282.6127600000	283.2343800000	283.9583700000	284.6490800000	285.1530200000	285.3711900000	285.4862100000	285.6206100000	285.5326200000	285.5218200000	285.5565200000	285.6788300000	285.7908600000	285.8614800000	285.9656100000	286.0732400000	286.0992100000	286.0610400000	286.1546300000	286.1608300000	286.2013500000	286.2272900000	286.2178300000	286.1992500000	286.1977200000	286.1498100000	285.9923700000	285.8977100000	285.7255600000	285.5120800000	285.3605700000	285.1390400000	284.9331100000	284.7542400000	284.5556000000	284.2407800000	283.9082300000	283.4748800000	283.0231000000	282.4668000000	281.8519300000	281.2689800000	280.7599500000	280.1637000000	279.6956200000	279.2125200000	278.7232700000	278.3382900000	278.0602400000	277.8342300000	277.7724000000	278.4247700000	278.9842800000	279.7496600000	280.4074400000	280.8221400000	280.9572400000	280.9212300000	280.8797600000	281.0271600000	281.2511600000	281.6878700000	282.2806700000	282.9126000000	283.5097000000	284.0255100000	284.4600500000	-9999.0000000000
281.9985400000	280.8896800000	280.0338700000	279.2013200000	278.4652100000	277.8192400000	277.4510200000	277.2058700000	277.0066200000	276.7892800000	276.4201400000	275.8907800000	275.3370100000	274.8506200000	274.5200500000	274.3231500000	274.1991300000	274.0885600000	274.0183100000	274.3546800000	274.7836900000	275.3290400000	276.0175200000	276.8712200000	277.6817900000	278.4117700000	278.7804600000	278.8978000000	278.8205300000	278.7287000000	278.7342500000	278.8562000000	279.2241800000	279.8120100000	280.4256300000	281.1251800000	281.7858300000	282.3728300000	282.7328800000	283.1767600000	283.5435800000	283.5042700000	283.8479000000	284.1806600000	284.3352700000	284.5762300000	284.7704200000	285.0683000000	285.3288600000	285.6418500000	286.0434000000	286.4263300000	286.6732200000	286.8248300000	286.8946200000	286.9433600000	287.0314600000	286.9992700000	286.9471700000	286.9975900000	286.9705500000	286.8374000000	286.7146000000	286.4551100000	286.2422800000	286.2407500000	286.3064300000	286.4444900000	286.4722600000	286.4146100000	286.3476900000	286.2905300000	286.1295500000	285.8344700000	285.3081400000	284.6233500000	284.0477600000	283.7474700000	283.8262300000	284.1503600000	284.2610200000	283.6786500000	282.8236100000	282.0175200000	281.4183000000	281.0013700000	281.3125000000	281.6289700000	281.6796000000	281.5048500000	281.3310900000	281.6777000000	282.2191500000	282.8024300000	283.5095800000	284.2833300000	284.9239200000	285.2930300000	285.3502200000	285.3546800000	285.4294700000	285.2523500000	285.2377000000	285.2994100000	285.4881000000	285.6335400000	285.7321800000	285.8406700000	285.9529100000	285.9668300000	285.9286500000	286.0222500000	286.0478500000	286.0885000000	286.0967700000	286.1015600000	286.0949700000	286.0899400000	286.0393100000	285.8750000000	285.7730400000	285.5815700000	285.3558700000	285.1838400000	284.9420200000	284.7185400000	284.5740100000	284.4281900000	284.1438300000	283.8439000000	283.4657300000	283.1184700000	282.7173800000	282.2241200000	281.6923200000	281.1636000000	280.5377200000	280.0041200000	279.4592600000	278.8549500000	278.3781100000	278.0344500000	277.6979100000	277.6297900000	278.2568700000	278.8027300000	279.4836700000	279.9968000000	280.2554900000	280.3468300000	280.3978900000	280.5006700000	280.7007400000	281.0927700000	281.7529000000	282.4649000000	283.1221900000	283.7098700000	284.1745600000	284.5286900000	-9999.0000000000
281.7451800000	280.5624700000	279.6859100000	278.8871800000	278.1534100000	277.4737500000	276.9722300000	276.5580700000	276.2523800000	276.0128200000	275.7256500000	275.2802400000	274.8212000000	274.4348100000	274.2100800000	274.0641500000	273.9216900000	273.9125400000	274.1684000000	274.6318400000	275.1183200000	275.6724900000	276.4753400000	277.4839500000	278.4570900000	279.1372400000	279.5329900000	279.6697400000	279.5493500000	279.3585200000	279.2357500000	279.2262000000	279.3859900000	279.8088700000	280.3237300000	280.9582500000	281.7105700000	282.4151000000	282.9528200000	283.5709800000	284.0741600000	284.1268900000	284.4922500000	284.8211400000	285.0028100000	285.2209800000	285.3800700000	285.6086400000	285.7967800000	286.0138900000	286.3074600000	286.5744300000	286.7319000000	286.8389300000	286.8804600000	286.9233100000	286.9873700000	286.9492500000	286.9022500000	286.9454300000	286.8969400000	286.7384300000	286.5293300000	286.1597000000	285.8590400000	285.8352700000	285.9675000000	286.2201500000	286.3295000000	286.2708100000	286.2133200000	286.1385200000	285.9846200000	285.7188100000	285.2309300000	284.5268900000	283.8708800000	283.4999400000	283.4368000000	283.6924400000	283.9086300000	283.5217600000	282.7360200000	281.9185500000	281.2718800000	280.8170800000	281.0999500000	281.3756400000	281.3734100000	281.1883900000	281.1970200000	281.7077000000	282.3148500000	282.9933200000	283.7899200000	284.5681200000	285.0654900000	285.2556500000	285.1546300000	285.0741300000	285.1092200000	284.8970000000	284.9158300000	285.0423600000	285.3068200000	285.4903000000	285.5846900000	285.7062100000	285.8199500000	285.8153100000	285.7829300000	285.8853100000	285.9303300000	285.9607800000	285.9821800000	285.9847400000	285.9843400000	285.9825400000	285.9116500000	285.7565000000	285.6392200000	285.4314900000	285.1852400000	284.9655500000	284.6687300000	284.4135100000	284.2872300000	284.2233900000	284.0233200000	283.7171600000	283.3335600000	282.9837000000	282.6704400000	282.3273600000	281.9994500000	281.5797100000	280.9769300000	280.4133300000	279.7674300000	279.0659200000	278.4340200000	277.9938000000	277.5718400000	277.4646900000	278.0928000000	278.5605800000	279.1009500000	279.4971900000	279.7262600000	279.8725300000	280.0207500000	280.2269900000	280.5447400000	281.0621000000	281.7534500000	282.4959700000	283.1864600000	283.7873500000	284.2557700000	284.5875500000	-9999.0000000000
281.5093700000	280.0892900000	279.2341900000	278.4636800000	277.7475000000	277.1134000000	276.5831000000	275.9783600000	275.6150200000	275.3546100000	275.0936300000	274.7086800000	274.3296200000	274.0481300000	273.8465900000	273.7324200000	273.7525300000	273.9526700000	274.3409700000	274.8718300000	275.4430500000	276.0439100000	276.8792100000	278.0058000000	279.0129700000	279.6679400000	280.1858200000	280.4553800000	280.3880000000	280.1171900000	279.8258700000	279.7164300000	279.7291300000	279.9209600000	280.2691300000	280.7774000000	281.4895000000	282.1971100000	282.8204000000	283.5478200000	284.2179900000	284.4270900000	284.8233300000	285.1867700000	285.4162300000	285.6535600000	285.7989500000	285.9972500000	286.1277200000	286.2732200000	286.4727500000	286.6717200000	286.7577500000	286.8283700000	286.8628500000	286.8899200000	286.9487000000	286.9124500000	286.8586700000	286.8999300000	286.8372200000	286.6418800000	286.3392900000	285.8668500000	285.4737500000	285.4086600000	285.5721700000	285.9234300000	286.1190800000	286.0739100000	286.0026900000	285.9232200000	285.7912000000	285.5487400000	285.0733000000	284.3657200000	283.6819200000	283.2897000000	283.1191700000	283.2596400000	283.4795200000	283.2653800000	282.6121800000	281.8275800000	281.1481600000	280.5702800000	280.8539700000	281.0762000000	281.0519100000	280.8953600000	281.0819100000	281.6897000000	282.3545500000	283.1091000000	283.9791300000	284.7099300000	285.0772700000	285.1166700000	284.8944700000	284.7157000000	284.7110000000	284.5459600000	284.6269200000	284.8252000000	285.1388200000	285.3518700000	285.4425400000	285.5565800000	285.6519800000	285.6391000000	285.6144700000	285.7384900000	285.7931800000	285.8418600000	285.8685300000	285.8743900000	285.8743900000	285.8675500000	285.7823200000	285.6268000000	285.4861500000	285.2564100000	284.9847700000	284.7134400000	284.3379200000	284.0173600000	283.8870500000	283.9406400000	283.8509200000	283.5976000000	283.2067000000	282.7696500000	282.3513200000	282.0383000000	281.8308700000	281.5865800000	281.1254000000	280.6533800000	280.0158100000	279.2213400000	278.4945700000	277.9594100000	277.4736900000	277.3254400000	277.9103700000	278.2761500000	278.7058100000	279.0456200000	279.3134500000	279.5040300000	279.8176600000	280.1886000000	280.6381500000	281.1649500000	281.7671200000	282.4333500000	283.1269800000	283.7838100000	284.2853400000	284.5919200000	-9999.0000000000
281.2331200000	279.6348600000	278.8191800000	278.0557300000	277.3209800000	276.6856400000	276.1698000000	275.5481900000	275.1075700000	274.8370700000	274.5789500000	274.2427400000	273.9583700000	273.7341300000	273.5341200000	273.5637500000	273.6614700000	274.0305500000	274.5457800000	275.1699500000	275.8339800000	276.5483700000	277.3928500000	278.4469000000	279.3549500000	280.0863000000	280.6957700000	281.1004000000	281.1530800000	280.8948100000	280.5190400000	280.2569300000	280.1768800000	280.2374600000	280.4452500000	280.7712400000	281.2718800000	281.8929400000	282.5069900000	283.2637900000	284.0431500000	284.3667300000	284.7929400000	285.1899400000	285.4880100000	285.7900400000	285.9821800000	286.1947300000	286.3215900000	286.4158300000	286.5525500000	286.7012900000	286.7485700000	286.8089600000	286.8434800000	286.8644400000	286.9097600000	286.8756700000	286.8053300000	286.8449400000	286.7722500000	286.5246900000	286.1528900000	285.6024800000	285.1620200000	284.9800400000	285.1622600000	285.5560000000	285.8246200000	285.8265700000	285.7189300000	285.6232600000	285.5266700000	285.3347800000	284.8807700000	284.1642200000	283.4911800000	283.0977800000	282.8577300000	282.8987100000	283.0108000000	282.9064000000	282.4244700000	281.7192700000	281.0315900000	280.4075600000	280.5894500000	280.7558000000	280.7558300000	280.6469100000	280.9959400000	281.6527100000	282.3352700000	283.1445000000	284.0441600000	284.7125200000	284.9783900000	284.9163800000	284.5905800000	284.3280000000	284.3283700000	284.2436500000	284.3680100000	284.6541100000	284.9992400000	285.2145400000	285.2995900000	285.3869900000	285.4527900000	285.4333200000	285.4110100000	285.5616800000	285.6401400000	285.7117600000	285.7377000000	285.7459400000	285.7571400000	285.7429200000	285.6617700000	285.5034800000	285.3271500000	285.0364100000	284.7038300000	284.4125700000	283.9786400000	283.5461100000	283.3902300000	283.5247200000	283.5678700000	283.4830300000	283.1174600000	282.6130700000	282.0218500000	281.5747700000	281.3400000000	281.1328400000	280.7742600000	280.4429900000	279.9466900000	279.1778300000	278.4541600000	277.8839100000	277.3670300000	277.1823700000	277.7157600000	278.0166900000	278.3538200000	278.6651300000	279.0279500000	279.4566700000	279.9318800000	280.4049100000	280.9334100000	281.4853500000	282.0515700000	282.6489300000	283.2596400000	283.8603800000	284.3124100000	284.6007400000	-9999.0000000000
281.0165700000	279.3388400000	278.5607000000	277.7901600000	277.0276500000	276.3490300000	275.8097200000	275.2677600000	274.7967500000	274.4897200000	274.2050800000	273.9021900000	273.6604600000	273.4544100000	273.3588000000	273.3401800000	273.6913500000	274.1793200000	274.8338300000	275.5404100000	276.3161900000	277.1117200000	277.9670100000	278.8559600000	279.6117600000	280.2910500000	280.8855000000	281.3346300000	281.5684800000	281.4744300000	281.2363600000	280.9158600000	280.7423100000	280.7143200000	280.7918700000	281.0278000000	281.3662100000	281.8043200000	282.3293800000	282.9918500000	283.8597100000	284.1735200000	284.5916400000	285.0143100000	285.3540300000	285.7260400000	286.0004000000	286.2471900000	286.3723100000	286.4537000000	286.5772400000	286.6924400000	286.7406000000	286.7894300000	286.8239100000	286.8314800000	286.8706400000	286.8202200000	286.7460300000	286.7862500000	286.7036100000	286.4312100000	285.9979900000	285.3852500000	284.8843400000	284.5897500000	284.7515000000	285.1526800000	285.4550500000	285.4852300000	285.3299000000	285.2020300000	285.1738900000	285.0878300000	284.6831400000	283.9624900000	283.3238500000	282.9314300000	282.6492300000	282.5806300000	282.5549900000	282.4563600000	282.1499900000	281.5767800000	280.9144300000	280.2898900000	280.2640700000	280.4201400000	280.3830900000	280.5004600000	280.9462900000	281.5841400000	282.2435000000	283.0735200000	283.9863900000	284.5978100000	284.7975500000	284.6663500000	284.2671800000	283.9412200000	283.9577600000	284.0118400000	284.1806600000	284.5105000000	284.8809500000	285.0921300000	285.1308300000	285.1909800000	285.2082200000	285.1783100000	285.1665600000	285.3696300000	285.4967000000	285.5786700000	285.6062600000	285.6090100000	285.6277800000	285.6159100000	285.5311300000	285.3723400000	285.1483800000	284.7393500000	284.3391100000	284.0315600000	283.5898400000	283.0879800000	282.9076500000	283.0233800000	283.1694600000	283.2246400000	282.9743000000	282.5310700000	281.8973700000	281.2657200000	280.8507100000	280.5422100000	280.1841100000	279.9164700000	279.5387000000	278.9032600000	278.2586100000	277.7363900000	277.2358700000	277.0323800000	277.5201400000	277.7730700000	278.0782800000	278.4825700000	279.0509000000	279.6418800000	280.2203100000	280.7502400000	281.3454900000	281.9176600000	282.4693900000	283.0159900000	283.5135800000	284.0051300000	284.3615100000	284.6204500000	-9999.0000000000
281.0136700000	279.4137000000	278.6315600000	277.8269700000	277.0379000000	276.2778900000	275.5963100000	275.0289600000	274.5728500000	274.1983000000	273.9503500000	273.7072400000	273.4222100000	273.2591200000	273.1896100000	273.2999600000	273.7729800000	274.4049700000	275.1854900000	275.9720800000	276.8029800000	277.5904200000	278.3527200000	279.0468400000	279.6013200000	280.1069900000	280.6188400000	281.0711700000	281.4420800000	281.6745600000	281.7500300000	281.5952100000	281.4278000000	281.3560200000	281.3337100000	281.4650900000	281.7077900000	282.0383300000	282.4532800000	283.0305800000	283.7960800000	284.0568800000	284.4054300000	284.8207400000	285.1763000000	285.5730000000	285.9276100000	286.2211600000	286.3590700000	286.4424700000	286.5675400000	286.6846600000	286.7285500000	286.7772500000	286.7950700000	286.7923300000	286.8233600000	286.7629400000	286.6879000000	286.7275700000	286.6415100000	286.3554700000	285.8840000000	285.2344400000	284.6727000000	284.2440200000	284.3331300000	284.7010200000	284.9874900000	285.0236200000	284.8362400000	284.6597900000	284.7168900000	284.8077100000	284.5136100000	283.7928800000	283.1545400000	282.7620800000	282.4570600000	282.3201600000	282.1537800000	281.9898400000	281.7938800000	281.3795500000	280.8050200000	280.2226600000	279.9954200000	280.1251200000	280.1633300000	280.4401600000	280.9029800000	281.5139200000	282.2031600000	283.0268200000	283.9027100000	284.4454000000	284.5486500000	284.3365800000	283.9090900000	283.5877100000	283.6977200000	283.8656900000	284.0629900000	284.4201400000	284.7929400000	284.9415600000	284.9224200000	284.9470200000	284.9281000000	284.8710600000	284.9261800000	285.1835000000	285.3594700000	285.4565400000	285.4849500000	285.4849500000	285.5025600000	285.4886500000	285.4070400000	285.2482600000	284.9970400000	284.4554100000	283.9249600000	283.5985700000	283.1700400000	282.6980000000	282.4708600000	282.5122100000	282.6734900000	282.8207700000	282.7106000000	282.4065900000	281.8677100000	281.2017800000	280.5983600000	280.0760800000	279.6480100000	279.3780200000	279.0262800000	278.5275900000	277.9678000000	277.5300900000	277.0836800000	276.8895600000	277.3815300000	277.6519800000	278.0179400000	278.5748900000	279.2529600000	279.9155600000	280.5515700000	281.1323500000	281.7554900000	282.3392900000	282.8613000000	283.3468900000	283.7532300000	284.1340000000	284.4149200000	284.6149600000	-9999.0000000000
281.2045300000	279.8340500000	279.0344500000	278.1712300000	277.3193700000	276.4613300000	275.6655600000	274.9803800000	274.4689600000	274.0545300000	273.6973900000	273.4674400000	273.2355700000	273.1018100000	273.0506600000	273.3297700000	273.8880000000	274.6463900000	275.5076300000	276.3093600000	277.0682100000	277.7218300000	278.3019700000	278.8039200000	279.1704400000	279.5460200000	280.0237100000	280.5315200000	281.0449800000	281.5056800000	281.8688400000	282.0267600000	282.0672900000	282.0664400000	282.0020800000	282.0729100000	282.2193000000	282.4668900000	282.7545500000	283.2738000000	283.8632800000	284.1268900000	284.4432700000	284.8224200000	285.1429100000	285.5213000000	285.8877300000	286.1918600000	286.3390800000	286.4257800000	286.5603600000	286.6628700000	286.7083100000	286.7493900000	286.7669100000	286.7529900000	286.7712400000	286.7106600000	286.6411700000	286.6786500000	286.5828200000	286.2810100000	285.7828700000	285.0918300000	284.4959400000	284.0107700000	283.9370100000	284.2205800000	284.4355200000	284.4691800000	284.2716400000	284.0524000000	284.1695600000	284.4501300000	284.3586100000	283.6858500000	283.0213000000	282.6037600000	282.2872000000	282.0999100000	281.8064000000	281.5574300000	281.3954800000	281.0938400000	280.6335800000	280.0960700000	279.8231500000	279.9304200000	280.1108400000	280.4800100000	280.9716500000	281.5988800000	282.2899200000	283.0963100000	283.8694500000	284.2601000000	284.2049600000	283.9307600000	283.5092200000	283.2607700000	283.5062000000	283.7583000000	284.0274400000	284.3967000000	284.6952800000	284.7468000000	284.6620500000	284.6456900000	284.6212500000	284.5574600000	284.7001000000	285.0052800000	285.2099600000	285.3303800000	285.3675500000	285.3785400000	285.3861700000	285.3799700000	285.2924200000	285.1432800000	284.8867200000	284.2809400000	283.6337600000	283.2034900000	282.7963300000	282.3757900000	282.1074800000	282.0434900000	282.1420300000	282.3004800000	282.2832000000	282.0832500000	281.6694900000	281.1127300000	280.5291700000	279.9318500000	279.3329200000	278.9711000000	278.6298800000	278.2130100000	277.7373000000	277.3486000000	276.9375900000	276.7573900000	277.3184200000	277.6232600000	278.0594500000	278.7102700000	279.4236500000	280.1221900000	280.7585400000	281.3561700000	281.9750400000	282.5750700000	283.0842300000	283.5356800000	283.8831200000	284.1908300000	284.4166000000	284.5832800000	-9999.0000000000
281.3339800000	280.3744800000	279.5690600000	278.6739200000	277.7641300000	276.7975500000	275.9391200000	275.1642800000	274.4872100000	273.9606600000	273.5417200000	273.2173800000	273.0831300000	272.9321300000	272.9669800000	273.3865100000	273.9925500000	274.7739000000	275.5975300000	276.2934000000	276.8950500000	277.3672500000	277.8003200000	278.2062100000	278.5412300000	278.9427200000	279.4148900000	279.9883400000	280.5893900000	281.1109600000	281.6143200000	282.0006400000	282.2874800000	282.4597200000	282.5336900000	282.6630200000	282.8103000000	283.0108000000	283.2099900000	283.6627500000	284.1283000000	284.3511000000	284.6703500000	285.0167800000	285.2846100000	285.6226800000	285.9286200000	286.1809400000	286.3083200000	286.4164100000	286.5779400000	286.6424000000	286.6758400000	286.7103000000	286.7246400000	286.7020000000	286.7269300000	286.6668700000	286.6013800000	286.6404700000	286.5480700000	286.2304400000	285.7086200000	284.9989600000	284.3545800000	283.8347800000	283.6038200000	283.7623900000	283.8798500000	283.8815600000	283.6847200000	283.4733600000	283.5994300000	283.9980800000	284.1809400000	283.7470700000	283.0682400000	282.5769700000	282.1744400000	281.9019800000	281.5116900000	281.1798100000	280.9741200000	280.7218900000	280.3524800000	279.8591300000	279.6693400000	279.8166500000	280.1132500000	280.5895400000	281.1263100000	281.7698400000	282.4622800000	283.2254600000	283.8264200000	283.9746100000	283.7601300000	283.4595300000	283.1203300000	282.9882800000	283.3149100000	283.6908600000	284.0395200000	284.3904400000	284.5606100000	284.4913900000	284.3442700000	284.2990400000	284.2924500000	284.2754200000	284.4937400000	284.8255900000	285.0770600000	285.2195700000	285.2621800000	285.2798800000	285.2799700000	285.2702000000	285.1860700000	285.0463900000	284.7963900000	284.1890000000	283.5151700000	282.9908100000	282.5390000000	282.1297600000	281.8084700000	281.6566200000	281.6593600000	281.7570500000	281.7441100000	281.5660100000	281.2174100000	280.7752400000	280.3626400000	279.9159200000	279.2923900000	278.8158600000	278.3809200000	277.9898400000	277.6065100000	277.2054700000	276.7881500000	276.6836200000	277.2677900000	277.5510300000	278.0313700000	278.7163100000	279.4120200000	280.0751000000	280.6742600000	281.2412400000	281.8744500000	282.5015900000	283.0536800000	283.5230700000	283.8523300000	284.1403200000	284.3545800000	284.5084500000	-9999.0000000000
281.3105200000	280.7879600000	280.0301500000	279.1729100000	278.2576900000	277.2144500000	276.2966600000	275.4570000000	274.5883200000	273.8978000000	273.3963900000	272.9990800000	272.8678600000	272.7522900000	272.9510500000	273.4463200000	274.0092200000	274.7185100000	275.3737200000	275.9068300000	276.3675800000	276.7585400000	277.1489300000	277.6165800000	278.0249900000	278.4644200000	278.9428700000	279.5298800000	280.1428200000	280.6773100000	281.2092000000	281.6732800000	282.0836500000	282.4204700000	282.7000100000	282.9904500000	283.2545800000	283.5091900000	283.7151500000	284.1338800000	284.5089100000	284.6502100000	284.9557200000	285.2861900000	285.5111700000	285.7871700000	285.9921900000	286.1681800000	286.2804900000	286.4113200000	286.5721100000	286.6236000000	286.6337900000	286.6530200000	286.6682100000	286.6547500000	286.6763000000	286.6233500000	286.5517600000	286.6030600000	286.5169700000	286.2207600000	285.7659300000	285.0477300000	284.3308400000	283.7279400000	283.3612400000	283.3599500000	283.3961200000	283.3414600000	283.1664700000	282.9995700000	283.0636300000	283.4605700000	283.8808600000	283.8495500000	283.2664200000	282.7095600000	282.1615900000	281.7263500000	281.2100500000	280.8563800000	280.5654600000	280.3071900000	279.9914900000	279.5928000000	279.4792500000	279.7587600000	280.1968100000	280.7564400000	281.3205000000	281.9868500000	282.7023600000	283.3697800000	283.7091100000	283.5898100000	283.2763100000	283.0089100000	282.7861600000	282.7761200000	283.2280300000	283.6890000000	284.0815700000	284.3499100000	284.3486900000	284.1703200000	283.9901400000	283.9487000000	283.9837300000	284.0289300000	284.2912000000	284.6595800000	284.9594100000	285.1135900000	285.1711400000	285.1833800000	285.1828000000	285.1703500000	285.0954300000	284.9624900000	284.7640400000	284.2366000000	283.6055000000	283.0348800000	282.4670400000	281.9795800000	281.6149000000	281.3600500000	281.2637300000	281.2716400000	281.1958600000	280.9975600000	280.6464200000	280.2739600000	280.0005200000	279.7612000000	279.3077400000	278.8639800000	278.3461900000	277.8393900000	277.4470500000	277.0911900000	276.6457800000	276.6048300000	277.1447100000	277.4093600000	277.9035600000	278.5362900000	279.1595500000	279.7607400000	280.3414300000	280.9021900000	281.5775500000	282.2758500000	282.8993800000	283.3815600000	283.6958600000	283.9689000000	284.1817000000	284.3301400000	-9999.0000000000
281.1215800000	280.8552600000	280.2255900000	279.4450700000	278.5764500000	277.5265500000	276.5639000000	275.6498100000	274.6449600000	273.8280900000	273.2336400000	272.8062700000	272.6523700000	272.6192300000	272.9759800000	273.4380500000	273.9395400000	274.5173000000	274.9992100000	275.4426900000	275.8711500000	276.3081400000	276.7971500000	277.3458300000	277.7884200000	278.2312900000	278.6658300000	279.2054400000	279.7904400000	280.3293800000	280.8344400000	281.3336200000	281.8091400000	282.2285500000	282.6270400000	283.0508700000	283.4425700000	283.8126800000	284.0913100000	284.5188600000	284.8577600000	284.9468100000	285.2219800000	285.5105300000	285.6729100000	285.8718600000	285.9988400000	286.1484100000	286.2714800000	286.3956600000	286.5428500000	286.5842300000	286.5925000000	286.5864300000	286.5873700000	286.5935400000	286.6176100000	286.5698900000	286.5140400000	286.5528600000	286.4668000000	286.1821600000	285.7611700000	285.0560000000	284.3051800000	283.6472200000	283.1869200000	283.0404100000	282.9957000000	282.9030500000	282.7575700000	282.6183800000	282.6225000000	282.8924000000	283.3936200000	283.7098700000	283.4538600000	282.9581600000	282.2959300000	281.7428600000	281.0972600000	280.5710800000	280.2272900000	279.9273400000	279.6430100000	279.3773200000	279.3217500000	279.8131400000	280.3820500000	280.9868800000	281.5728100000	282.2774700000	282.9838300000	283.4750100000	283.4808000000	283.1464800000	282.8215000000	282.6288100000	282.5193800000	282.6998600000	283.2738300000	283.7534200000	284.1159400000	284.1883900000	284.0158400000	283.7863200000	283.6597900000	283.6507000000	283.7053200000	283.8315700000	284.1479800000	284.5668600000	284.8862900000	285.0254800000	285.0783100000	285.0865500000	285.0865500000	285.0875900000	285.0177600000	284.8966400000	284.7536300000	284.3527200000	283.8318200000	283.2542700000	282.6011000000	282.0058600000	281.5407400000	281.1826500000	280.9531200000	280.8636200000	280.7345000000	280.4964300000	280.1265300000	279.7879000000	279.5627100000	279.4213600000	279.1454800000	278.8715500000	278.4050300000	277.8076200000	277.3224800000	277.0021400000	276.5448300000	276.5118400000	277.0282300000	277.3142400000	277.7673600000	278.2646200000	278.8016400000	279.4057600000	280.0405600000	280.6546900000	281.3652300000	282.1059000000	282.7442600000	283.1720000000	283.4188200000	283.6550600000	283.8770800000	284.0617400000	-9999.0000000000
280.7061500000	280.5065600000	280.0393100000	279.3807400000	278.5851100000	277.5629300000	276.5940900000	275.6438600000	274.5696100000	273.7168000000	273.1118200000	272.6734900000	272.5054300000	272.5701900000	272.9317900000	273.3137200000	273.7287300000	274.2246100000	274.7425800000	275.2674300000	275.8046300000	276.3447000000	276.9401600000	277.5057100000	277.9602100000	278.3835100000	278.7922400000	279.2717300000	279.7778300000	280.2401100000	280.7123100000	281.2218600000	281.7288800000	282.1492900000	282.5548400000	283.0036900000	283.4471100000	283.8756700000	284.2328800000	284.6874400000	285.0578000000	285.1415700000	285.3858000000	285.6159700000	285.7222300000	285.8431100000	285.9577900000	286.1269200000	286.2458800000	286.3477200000	286.4871800000	286.5178500000	286.5330200000	286.5155300000	286.5087900000	286.5163600000	286.5525800000	286.5082100000	286.4662500000	286.4993900000	286.4079300000	286.0765400000	285.5848700000	284.8887900000	284.1709300000	283.5423000000	283.0988200000	282.8458900000	282.6684300000	282.5503200000	282.4325600000	282.3088700000	282.2743200000	282.4000900000	282.7730100000	283.2107500000	283.3489400000	283.1499900000	282.5406200000	281.9219400000	281.1990400000	280.4994500000	280.0144700000	279.6627800000	279.4387500000	279.1395600000	279.3631300000	279.9757700000	280.6095600000	281.2454500000	281.8796700000	282.6143800000	283.2362100000	283.4418300000	283.1561000000	282.7154200000	282.4411900000	282.3186600000	282.3996000000	282.7870500000	283.4031700000	283.8315100000	284.0424200000	283.8739300000	283.6068100000	283.4190700000	283.3889800000	283.4020100000	283.5050400000	283.7787800000	284.1598200000	284.5808400000	284.8364000000	284.9552000000	284.9815700000	284.9854100000	284.9960300000	285.0056800000	284.9464400000	284.8363300000	284.7278400000	284.4267600000	284.0276200000	283.5077200000	282.8484500000	282.1841700000	281.6061700000	281.1629300000	280.7968100000	280.5427900000	280.3888900000	280.1173100000	279.7456400000	279.4271200000	279.1836900000	279.0076300000	278.8078300000	278.6780700000	278.3394200000	277.7769800000	277.2281800000	276.8931300000	276.4710100000	276.4192200000	276.9585300000	277.2966900000	277.6819200000	278.1413000000	278.7147200000	279.3988600000	280.0965600000	280.7390100000	281.4367100000	282.0901800000	282.5718400000	282.8228100000	282.9767200000	283.2005000000	283.4617000000	283.7031900000	-9999.0000000000
280.1682400000	279.8852500000	279.5507200000	279.0488300000	278.3566900000	277.4089700000	276.4395100000	275.4734800000	274.4332000000	273.5961300000	272.9964000000	272.5561200000	272.3935900000	272.5041800000	272.8204300000	273.1562200000	273.6141700000	274.2035500000	274.8778400000	275.5071700000	276.1397700000	276.7601600000	277.3975500000	277.9317300000	278.4018200000	278.8382600000	279.2637900000	279.6948500000	280.0993300000	280.4479400000	280.8711200000	281.3376500000	281.7733500000	282.1298200000	282.4657900000	282.8425300000	283.2784100000	283.7208600000	284.1378500000	284.6416300000	285.0889600000	285.1905200000	285.4008200000	285.6112400000	285.6905800000	285.7813400000	285.9279200000	286.0961600000	286.1838700000	286.2822600000	286.4089400000	286.4479700000	286.4568500000	286.4526400000	286.4511100000	286.4489100000	286.4781200000	286.4429900000	286.4028300000	286.4555400000	286.3592800000	285.9930700000	285.4456500000	284.7567100000	284.1025400000	283.5604900000	283.2014200000	282.9184000000	282.5968000000	282.3494600000	282.1747700000	282.0554200000	281.9871200000	282.0073500000	282.1840500000	282.5164500000	282.8352700000	282.9722600000	282.6420300000	282.0830400000	281.3471100000	280.5990900000	280.0136400000	279.5536800000	279.3130500000	278.9604500000	279.4899600000	280.1566800000	280.8368200000	281.5344200000	282.2097200000	282.8945600000	283.3180800000	283.2412100000	282.7884800000	282.3368500000	282.1223100000	282.0883800000	282.4003000000	282.9112200000	283.5037200000	283.7887300000	283.7866800000	283.4576700000	283.2212200000	283.1353500000	283.1692800000	283.2485400000	283.4841600000	283.8740500000	284.2916900000	284.6401100000	284.7981600000	284.8938300000	284.9092700000	284.9050600000	284.9213300000	284.9142800000	284.8703000000	284.7762500000	284.6872300000	284.4430800000	284.1289100000	283.7025100000	283.0966800000	282.4134800000	281.7944900000	281.2793900000	280.8178700000	280.4254800000	280.1471900000	279.8269000000	279.5049700000	279.1934500000	278.9253500000	278.6835900000	278.4104600000	278.3131400000	278.0828600000	277.6247300000	277.1134300000	276.7849100000	276.3866600000	276.3221400000	276.8874500000	277.2325700000	277.6426100000	278.2399300000	278.9444900000	279.7016300000	280.4062200000	281.0245100000	281.6526800000	282.1091300000	282.3109100000	282.3219300000	282.3877000000	282.6360500000	282.9480300000	283.2301900000	-9999.0000000000
279.6118800000	279.1552400000	278.8947800000	278.5207500000	277.9853800000	277.2139600000	276.2911700000	275.2475300000	274.2102400000	273.4491900000	272.8753400000	272.4476900000	272.2817700000	272.3921500000	272.7305300000	273.1070900000	273.7112400000	274.4888300000	275.2886400000	275.9316400000	276.5564600000	277.1983900000	277.8714900000	278.3426800000	278.8281900000	279.2786300000	279.6741000000	280.0170600000	280.2879000000	280.5326500000	280.8867500000	281.2685900000	281.5991800000	281.9013100000	282.2140200000	282.5473000000	282.9628600000	283.4371600000	283.9015800000	284.4732100000	285.0019500000	285.1431600000	285.3504300000	285.5569500000	285.6416300000	285.7523500000	285.8984100000	286.0410500000	286.1160300000	286.2138100000	286.3404500000	286.3795200000	286.3798500000	286.3925200000	286.3951700000	286.3902300000	286.4162900000	286.3805500000	286.3530600000	286.4164100000	286.3301100000	286.0128500000	285.5266400000	284.8757600000	284.3007200000	283.8436300000	283.5268200000	283.2333700000	282.8300200000	282.4247100000	282.1024800000	281.8897700000	281.7678500000	281.7059900000	281.7424600000	281.8938900000	282.1462100000	282.3982500000	282.3561700000	282.0345200000	281.4053000000	280.6453200000	280.0379600000	279.4602100000	279.1118500000	278.9032000000	279.5487700000	280.2955600000	281.0430300000	281.8195500000	282.4601100000	282.9530900000	283.1473700000	282.9315200000	282.4399100000	282.0119900000	281.8364300000	281.8978900000	282.3751200000	282.9223900000	283.4292000000	283.4925200000	283.3370100000	283.0352500000	282.9129900000	282.9058800000	283.0055200000	283.2439900000	283.6230500000	284.0402800000	284.4386000000	284.6827700000	284.7594300000	284.8351400000	284.8505900000	284.8463700000	284.8528700000	284.8410600000	284.7996200000	284.7175600000	284.6358600000	284.4302700000	284.1479800000	283.7966000000	283.2669100000	282.6428800000	282.0471500000	281.4968600000	280.9665800000	280.5471200000	280.1485600000	279.7901600000	279.4475400000	279.0932300000	278.7512200000	278.4125100000	278.0528600000	277.9133300000	277.7009000000	277.3733200000	276.9633800000	276.6798700000	276.2888500000	276.2536300000	276.8189700000	277.1479800000	277.6681800000	278.4271200000	279.2238800000	280.0049100000	280.7005000000	281.2511900000	281.7338300000	281.9392100000	281.8860500000	281.7433500000	281.7635500000	282.0373200000	282.3814700000	282.6727900000	-9999.0000000000
279.0780300000	278.4500400000	278.1641500000	277.8519600000	277.4774500000	276.9436600000	276.1633600000	275.0943300000	273.9913000000	273.2852200000	272.7695300000	272.3763700000	272.1508500000	272.2569300000	272.6367200000	273.0699500000	273.7911700000	274.7222600000	275.6072100000	276.2626000000	276.8558300000	277.4611200000	278.1018700000	278.5080900000	278.9485200000	279.3063000000	279.5983000000	279.8200100000	279.9801000000	280.1728800000	280.4983500000	280.8388400000	281.1409900000	281.4477500000	281.8132000000	282.2065400000	282.6486200000	283.1363500000	283.6354400000	284.2350800000	284.8667900000	285.0864600000	285.3004500000	285.5065900000	285.6238100000	285.7417600000	285.8526300000	285.9758300000	286.0479400000	286.1451100000	286.2774000000	286.3046300000	286.3121300000	286.3333100000	286.3432300000	286.3410600000	286.3768600000	286.3347800000	286.2960200000	286.3586400000	286.2970000000	286.0674100000	285.6948500000	285.1664700000	284.7082500000	284.3204700000	284.0017700000	283.6521300000	283.1863700000	282.7015100000	282.2569000000	281.9053000000	281.6709300000	281.5334200000	281.4603300000	281.4618500000	281.5665000000	281.7444200000	281.7723100000	281.6604600000	281.2363600000	280.5494400000	279.8827800000	279.2530500000	278.8148800000	278.8867800000	279.5806900000	280.3483000000	281.1392800000	281.9233400000	282.4259900000	282.7076400000	282.7982800000	282.5953100000	282.1349800000	281.7358700000	281.5856900000	281.6945800000	282.2116400000	282.6837500000	283.0485500000	282.9972500000	282.8376500000	282.6852700000	282.6736800000	282.7414200000	282.9665800000	283.3595000000	283.8220500000	284.2199100000	284.5345200000	284.6947900000	284.7196400000	284.7921400000	284.8008400000	284.7970300000	284.8029200000	284.7832000000	284.7316600000	284.6603100000	284.6031500000	284.4110400000	284.1284500000	283.8157300000	283.3690200000	282.8549200000	282.3304400000	281.7668500000	281.2114900000	280.7896700000	280.3814400000	279.9927700000	279.5570700000	279.1300000000	278.7077000000	278.2767600000	277.8360900000	277.5649100000	277.3085000000	277.0920100000	276.7926300000	276.5621600000	276.1895800000	276.1842700000	276.7367900000	277.1002500000	277.7267200000	278.5764500000	279.4232500000	280.2031200000	280.8574200000	281.2841200000	281.5450100000	281.5181300000	281.3347200000	281.1799600000	281.2149400000	281.5027800000	281.8226000000	282.0954300000	-9999.0000000000
278.7031600000	277.8651700000	277.5096700000	277.1946100000	276.8949300000	276.5170300000	275.8761300000	274.9328900000	273.8728900000	273.1315600000	272.6553600000	272.3146700000	272.0185500000	272.1038200000	272.4972500000	272.9693000000	273.7683700000	274.7394700000	275.6519500000	276.3259600000	276.8842500000	277.3937700000	277.9203200000	278.2617500000	278.5821800000	278.8370100000	279.0405900000	279.2294000000	279.4000900000	279.6176500000	279.9723200000	280.3574800000	280.7463100000	281.1331200000	281.5895400000	282.0981100000	282.6038200000	283.0840500000	283.5507800000	284.1167000000	284.8139600000	285.0742200000	285.2581800000	285.4663400000	285.6033300000	285.7213400000	285.8098800000	285.9147000000	285.9870000000	286.0818800000	286.2048300000	286.2429200000	286.2725500000	286.3022800000	286.3125000000	286.3195500000	286.3500100000	286.3140900000	286.2653100000	286.2944000000	286.2395900000	286.0845900000	285.8256800000	285.4851100000	285.1455400000	284.8484200000	284.5311000000	284.1356800000	283.6001000000	283.0525800000	282.5499600000	282.1109600000	281.7599800000	281.5012200000	281.3318800000	281.2202800000	281.1929000000	281.2459100000	281.2100200000	281.1521300000	280.8610500000	280.2951700000	279.6390700000	278.9879500000	278.5550200000	278.8603800000	279.5434000000	280.2576600000	281.0263100000	281.7234500000	282.0780300000	282.2865900000	282.4170800000	282.2989200000	281.8654200000	281.4891100000	281.3602600000	281.4612100000	281.8922400000	282.2287000000	282.4863900000	282.5171800000	282.4603000000	282.4310300000	282.5200200000	282.7137100000	283.0754400000	283.5525200000	284.0297500000	284.3622400000	284.5894500000	284.6933300000	284.7001300000	284.7725800000	284.7750200000	284.7746600000	284.7649500000	284.7371500000	284.6800500000	284.6203300000	284.5687300000	284.3701800000	284.1169100000	283.8413700000	283.4836400000	283.0603300000	282.5909100000	282.0447400000	281.4955700000	281.0536800000	280.6098900000	280.1231700000	279.6178600000	279.1452900000	278.7149000000	278.2883900000	277.7859800000	277.3918200000	277.0864900000	276.8728600000	276.6306500000	276.4277300000	276.0972000000	276.0637800000	276.6337900000	277.0501400000	277.7319900000	278.5950900000	279.4518100000	280.2152100000	280.7758800000	281.0343300000	281.0754400000	280.9462900000	280.7621500000	280.6363800000	280.7277500000	281.0326200000	281.3219000000	281.5551800000	-9999.0000000000
278.4741200000	277.4075300000	277.0105900000	276.6802700000	276.3703900000	275.9768100000	275.3960600000	274.5966200000	273.6972700000	272.9844700000	272.5306100000	272.2441700000	271.9204400000	271.9750700000	272.3650200000	272.8533600000	273.6159100000	274.5015000000	275.3968800000	276.0650000000	276.5694300000	276.9770500000	277.4045700000	277.7114600000	277.9634700000	278.1806600000	278.3924000000	278.6470600000	278.9681100000	279.2762500000	279.7145400000	280.2151800000	280.7470400000	281.2580600000	281.8085600000	282.3932200000	282.9035900000	283.3620300000	283.7555500000	284.2462200000	284.8791500000	285.0946400000	285.2487800000	285.4187900000	285.5620700000	285.6851500000	285.7791700000	285.8698100000	285.9549300000	286.0374500000	286.1429400000	286.2055700000	286.2603500000	286.2910500000	286.3044400000	286.3191500000	286.3358200000	286.3234600000	286.2643100000	286.2741100000	286.2093500000	286.1176500000	285.9661300000	285.7593700000	285.5312800000	285.3089300000	285.0110800000	284.6134000000	284.0749800000	283.4928300000	282.9712200000	282.4800100000	282.0426000000	281.6519800000	281.3783600000	281.1614400000	281.0189200000	280.9386900000	280.8327900000	280.7469500000	280.4153400000	279.9362500000	279.3775000000	278.7279400000	278.3870800000	278.7593700000	279.3795800000	280.0278600000	280.7089800000	281.2849700000	281.5837700000	281.8541600000	282.0929000000	282.0550800000	281.6459000000	281.2553700000	281.1360500000	281.2054400000	281.5110500000	281.7484400000	282.0213600000	282.1824300000	282.2273600000	282.3128100000	282.5144000000	282.8341100000	283.2591600000	283.7732200000	284.2094700000	284.4656400000	284.6224400000	284.6882900000	284.6890300000	284.7481100000	284.7385900000	284.7331200000	284.7187800000	284.7132300000	284.6539000000	284.5824000000	284.5033900000	284.3230300000	284.1323500000	283.9085400000	283.6113900000	283.2375500000	282.7973000000	282.3061200000	281.7509200000	281.2627300000	280.7365400000	280.1430700000	279.5538000000	279.0755000000	278.6405300000	278.2382200000	277.7584200000	277.3653300000	277.0168500000	276.7421600000	276.5108900000	276.2775300000	275.9578200000	275.8691400000	276.5030500000	276.9701500000	277.6377000000	278.4546200000	279.2690100000	280.0015600000	280.4369800000	280.5161100000	280.4089400000	280.3394200000	280.1780700000	280.0617100000	280.2136800000	280.5253300000	280.8330100000	281.0552700000	-9999.0000000000
278.2993500000	277.0942100000	276.6315600000	276.2816200000	275.8985900000	275.4021600000	274.8554700000	274.1763000000	273.4614900000	272.8462800000	272.4044500000	272.1550600000	271.8640700000	271.8615100000	272.2043800000	272.6615600000	273.3321200000	274.1149600000	274.9380500000	275.5771200000	276.0138200000	276.3685900000	276.7413600000	277.0891400000	277.3593100000	277.6342200000	277.9039600000	278.3027000000	278.8429300000	279.2763400000	279.8403900000	280.4736900000	281.0597500000	281.6323900000	282.1840800000	282.7282700000	283.1724500000	283.5702800000	283.9181500000	284.3399700000	284.8909000000	285.0696400000	285.2134400000	285.3441200000	285.4960000000	285.6107800000	285.7143600000	285.8102700000	285.8878800000	285.9699100000	286.0588400000	286.1194500000	286.1879300000	286.2170100000	286.2382200000	286.2550700000	286.2731000000	286.2830800000	286.2355000000	286.2369400000	286.1852100000	286.1338800000	286.0239900000	285.8836700000	285.7542400000	285.5685700000	285.3307500000	284.9943500000	284.5362900000	284.0022300000	283.4937400000	282.9881600000	282.4849900000	282.0033600000	281.5973500000	281.2587300000	281.0058600000	280.8135700000	280.6196900000	280.3920600000	279.9748500000	279.5371400000	279.0987500000	278.5132100000	278.2067900000	278.5638100000	279.1086100000	279.7014200000	280.2770400000	280.7443800000	281.0389400000	281.4184900000	281.8031900000	281.8761300000	281.4904200000	281.0407100000	280.9057900000	280.9533400000	281.1780400000	281.3705400000	281.7139000000	281.9948700000	282.1122700000	282.3166500000	282.6323500000	283.0258200000	283.4802200000	283.9722000000	284.3404800000	284.5324700000	284.6136500000	284.6496300000	284.6490200000	284.6898500000	284.6545100000	284.6148700000	284.6476400000	284.6399500000	284.5693700000	284.4920700000	284.4274900000	284.2852800000	284.1539600000	283.9579200000	283.6621700000	283.2860100000	282.8717700000	282.4075900000	281.8638300000	281.3451500000	280.7690100000	280.1276600000	279.4706700000	278.9748500000	278.5319200000	278.1212500000	277.6403200000	277.2481100000	276.8651700000	276.5811800000	276.3825400000	276.1394000000	275.8065800000	275.6482500000	276.2865000000	276.7540600000	277.3957500000	278.1581700000	278.9068600000	279.5596600000	279.8624300000	279.8172300000	279.6522500000	279.7193600000	279.5317400000	279.4839200000	279.6896700000	279.9886800000	280.2922100000	280.5419300000	-9999.0000000000
278.2133800000	276.9334400000	276.4245000000	275.9906000000	275.4762000000	274.9213600000	274.3945600000	273.8376500000	273.2626000000	272.6882300000	272.2639200000	272.0480000000	271.8055400000	271.7580900000	271.9834000000	272.3702400000	272.9569700000	273.6512100000	274.3568700000	274.9326800000	275.3297400000	275.6732200000	276.0254500000	276.4656700000	276.8395100000	277.2534200000	277.6715100000	278.2729800000	278.9539200000	279.4610900000	280.1034500000	280.7449300000	281.2624500000	281.7903400000	282.2439900000	282.7036400000	283.0785200000	283.4444300000	283.7912000000	284.2383400000	284.8070400000	284.9816300000	285.1092200000	285.2429200000	285.3850100000	285.5043900000	285.5864900000	285.6853300000	285.7446300000	285.8329800000	285.9155300000	285.9668300000	286.0294800000	286.0705300000	286.0990000000	286.1213700000	286.1423000000	286.1613200000	286.1500900000	286.1372400000	286.1011000000	286.0653100000	285.9793400000	285.8680100000	285.7661400000	285.6285100000	285.4552300000	285.2221700000	284.8839700000	284.4710100000	284.0356400000	283.5562400000	283.0397600000	282.4838600000	281.9475100000	281.4824200000	281.0918000000	280.8315700000	280.5903600000	280.1539300000	279.5953100000	279.1600300000	278.8040800000	278.3483000000	278.0250200000	278.2967500000	278.7617200000	279.3144500000	279.8305700000	280.2424900000	280.5569800000	281.0307000000	281.5744000000	281.7714500000	281.3873600000	280.8572700000	280.6679700000	280.7196400000	280.9344200000	281.1230800000	281.5364100000	281.8969700000	282.0848100000	282.3802800000	282.7867400000	283.2196000000	283.6870700000	284.1064100000	284.3961200000	284.5158700000	284.5636600000	284.5658900000	284.5362500000	284.5671700000	284.5079000000	284.4379600000	284.4924900000	284.4805300000	284.4170800000	284.3651400000	284.3414900000	284.2270800000	284.1156600000	283.9180900000	283.5836200000	283.1455100000	282.6833500000	282.1949800000	281.6905500000	281.2136500000	280.6653700000	280.0280800000	279.3369800000	278.7946200000	278.3630400000	277.9673800000	277.4584400000	277.0488000000	276.6674200000	276.3787200000	276.1548200000	275.9730200000	275.7138400000	275.4442400000	275.9818700000	276.3835100000	276.9697000000	277.6725800000	278.3506500000	278.8424400000	279.0739400000	278.9899300000	278.8779000000	279.1690700000	278.9107700000	278.9491900000	279.2388600000	279.5248700000	279.7727700000	279.9944500000	-9999.0000000000
278.2339800000	276.9716200000	276.4745800000	275.9376500000	275.3385600000	274.7821000000	274.2313800000	273.6998000000	273.1492900000	272.5610700000	272.1383100000	271.8896200000	271.7129200000	271.6774600000	271.8439900000	272.0728800000	272.5428200000	273.1437100000	273.7446900000	274.2653800000	274.6664400000	275.0694900000	275.4526400000	275.9966100000	276.5247200000	277.0323200000	277.6630600000	278.3508900000	279.0706200000	279.6090100000	280.2036700000	280.7511000000	281.1514900000	281.5634200000	281.9192500000	282.3325500000	282.7466700000	283.1828000000	283.6202400000	284.1398600000	284.7642200000	284.9450700000	285.0235300000	285.1469700000	285.2689500000	285.3985900000	285.4808700000	285.5668000000	285.6144400000	285.7127700000	285.7936700000	285.8608700000	285.9152500000	285.9641400000	285.9975000000	286.0375700000	286.0619800000	286.0918000000	286.0898700000	286.0864000000	286.0538600000	286.0215800000	285.9493700000	285.8474400000	285.7554600000	285.6426700000	285.5042100000	285.3496700000	285.1259800000	284.8313000000	284.5017700000	284.0965900000	283.6198400000	283.0521200000	282.4371000000	281.8306000000	281.3025200000	280.9478500000	280.6984600000	280.2850300000	279.5066800000	278.9198300000	278.5378100000	278.2324200000	277.8890700000	278.0259100000	278.4145500000	278.9273100000	279.4204700000	279.8450900000	280.2599200000	280.8648700000	281.5035400000	281.7027900000	281.2903700000	280.6724200000	280.4230300000	280.5118700000	280.7434400000	280.8719200000	281.4141800000	281.8427700000	282.1334200000	282.5195300000	282.9874900000	283.4226700000	283.8163500000	284.1579000000	284.3614800000	284.4374100000	284.4850500000	284.4662200000	284.4111900000	284.4178800000	284.3290100000	284.2181400000	284.2656200000	284.2899200000	284.2772200000	284.2581500000	284.2598900000	284.1577100000	284.0273100000	283.8310200000	283.4611500000	282.9294700000	282.3452100000	281.7827500000	281.2971200000	280.8722500000	280.3902300000	279.8032800000	279.1439500000	278.6701000000	278.2737100000	277.9070700000	277.3971300000	277.0166600000	276.6840200000	276.3750300000	276.0656100000	275.8175000000	275.5898400000	275.2350500000	275.6366000000	276.0043600000	276.4697600000	277.0885600000	277.6955600000	278.0386000000	278.2187800000	278.1715700000	278.2255900000	278.8392300000	278.5677000000	278.5677000000	278.8447300000	279.1145600000	279.3402400000	279.6080600000	-9999.0000000000
278.4528200000	277.3185400000	276.8142700000	276.2268400000	275.6150200000	275.0680800000	274.5172100000	273.8846700000	273.2079500000	272.6174000000	272.0889000000	271.7192700000	271.5780900000	271.6199600000	271.7939100000	271.9336500000	272.2744800000	272.7453000000	273.2288200000	273.6812400000	274.1102000000	274.6539900000	275.1883200000	275.8211400000	276.4120800000	277.0139800000	277.7020600000	278.3797600000	279.0199000000	279.4888000000	279.9520600000	280.4188800000	280.7458500000	281.1247300000	281.5106200000	281.9896200000	282.5621000000	283.1158800000	283.6312900000	284.1546300000	284.7469800000	284.9385700000	284.9581000000	285.0335400000	285.1323500000	285.2484400000	285.3367900000	285.4187900000	285.4765300000	285.5675700000	285.6470000000	285.7212200000	285.7697400000	285.8188500000	285.8525100000	285.9188500000	285.9665200000	285.9911800000	285.9830000000	286.0123600000	285.9950900000	285.9777800000	285.9075600000	285.8175700000	285.7300400000	285.6282300000	285.5170000000	285.4075000000	285.2426100000	285.0166600000	284.7361800000	284.3776600000	283.9623100000	283.4626800000	282.8721000000	282.2059300000	281.5835000000	281.1338800000	280.8313600000	280.5165400000	279.7550000000	278.9480600000	278.4379000000	278.1808800000	277.8332500000	277.7737100000	278.1210600000	278.5792200000	279.0825800000	279.5996100000	280.1749300000	280.9250500000	281.5492600000	281.6224700000	281.1089800000	280.4399100000	280.1866500000	280.3328600000	280.5554200000	280.6851500000	281.3572700000	281.8867200000	282.2646200000	282.7225600000	283.2248500000	283.6150200000	283.9052700000	284.1691300000	284.3192700000	284.3917800000	284.4217800000	284.3940100000	284.3156400000	284.2931500000	284.1453600000	283.9608800000	284.0486100000	284.0937800000	284.1405300000	284.1516400000	284.1762700000	284.0911600000	283.9655800000	283.7823200000	283.4241000000	282.8562600000	282.1904900000	281.5258500000	280.9871200000	280.5792200000	280.1514900000	279.6406600000	279.1105000000	278.7754200000	278.4171100000	278.0650000000	277.6628400000	277.3164400000	276.9922500000	276.5915200000	276.1781000000	275.7738300000	275.5387900000	275.1483500000	275.3303800000	275.6969000000	276.0547800000	276.5546600000	277.1049800000	277.4080500000	277.5351300000	277.5692700000	277.8322400000	278.6562200000	278.5667000000	278.5677000000	278.5687000000	278.8386500000	279.1605200000	279.5789500000	-9999.0000000000
278.8129600000	277.9114400000	277.4219100000	276.8060900000	276.1802700000	275.6338200000	275.0528300000	274.2786300000	273.4761000000	272.8118900000	272.1978100000	271.6603400000	271.4019200000	271.5485500000	271.7548500000	271.9431800000	272.2046500000	272.5172100000	272.8386500000	273.2590900000	273.8002600000	274.4246200000	275.0896300000	275.7642500000	276.3495200000	276.9141200000	277.5125700000	278.1145300000	278.6279300000	279.0781900000	279.4754000000	279.9554100000	280.3211400000	280.8089900000	281.3288000000	281.9323700000	282.6149600000	283.2380100000	283.7744100000	284.2356900000	284.7609600000	284.8565400000	284.8358500000	284.8626400000	284.9120500000	284.9737500000	285.0524600000	285.1514900000	285.2338600000	285.3178700000	285.4018900000	285.4514200000	285.4842200000	285.5527300000	285.6143200000	285.6842700000	285.7422800000	285.7798500000	285.7919600000	285.8174100000	285.8156700000	285.8187300000	285.7587000000	285.6806300000	285.6068100000	285.5046400000	285.4129600000	285.3113700000	285.1637600000	284.9451600000	284.6505100000	284.2725800000	283.8449100000	283.3972500000	282.8969700000	282.3335300000	281.7327900000	281.2417600000	280.9192800000	280.6000400000	279.8916600000	279.1203900000	278.5266700000	278.1142300000	277.8281600000	277.4959400000	277.9032900000	278.3394800000	278.9107100000	279.5781900000	280.2414200000	281.0109900000	281.5512400000	281.3991400000	280.7722800000	280.1437700000	279.9751900000	280.2060900000	280.4368000000	280.7888800000	281.4460800000	282.0139800000	282.4669800000	282.9442100000	283.3762500000	283.7056300000	283.9426300000	284.1624100000	284.3059400000	284.3519600000	284.3731400000	284.3372500000	284.2313500000	284.1547500000	283.8811000000	283.6323200000	283.8635600000	283.8584900000	283.9781500000	284.0152600000	284.0534400000	283.9979200000	283.9190400000	283.7599200000	283.4564800000	282.9701200000	282.3438700000	281.6367800000	281.0210600000	280.6007100000	280.2056300000	279.8096300000	279.4283400000	279.0938400000	278.7591900000	278.4448900000	278.0459900000	277.6822200000	277.3291300000	276.8684700000	276.3510400000	275.8162200000	275.5235000000	275.1391600000	275.1026300000	275.4441500000	275.7255600000	276.1345500000	276.6374500000	276.9377400000	277.0708300000	277.1691300000	277.6297000000	278.5657000000	278.5667000000	278.5677000000	278.5687000000	278.9056700000	279.3594400000	279.7593100000	-9999.0000000000
